985
137.9389997861 957.7792066851 -64.9129 255 0 255
137.9389997861 957.7792066851 -64.9129 255 0 255
137.9969584373 956.9140502861 -65.7397 255 0 255
137.980922303 957.6619783925 -65.031 255 0 255
137.9944268673 957.0321231498 -64.9523 255 0 255
137.9361943285 959.7480989471 -65.7397 255 0 255
137.9944268673 957.0321231498 -64.9523 255 0 255
137.9345073297 959.8267808639 -65.5428 255 0 255
137.9345073297 959.8267808639 -65.1885 255 0 255
138.0379364059 956.8362107968 -65.3066 255 0 255
138.0300678084 959.0412487863 -64.9129 255 0 255
138.0300678084 959.0412487863 -64.9129 255 0 255
138.0300678084 959.0412487863 -64.9129 255 0 255
138.0300678084 959.0412487863 -64.9129 255 0 255
138.1175628709 956.7985089923 -65.3066 255 0 255
138.0567987621 959.6325576533 -64.9129 255 0 255
138.1551646985 956.8781333137 -65.5035 255 0 255
138.1416622777 957.5078885794 -64.9917 255 0 255
138.1247837159 958.2951076557 -64.9129 255 0 255
138.0918711633 959.8301548614 -65.7003 255 0 255
138.1247837159 958.2951076557 -64.9129 255 0 255
138.1247837159 958.2951076557 -64.9129 255 0 255
138.1247837159 958.2951076557 -64.9129 255 0 255
138.1616430929 958.4140250906 -64.9523 255 0 255
138.150672242 958.9257074925 -64.9129 255 0 255
138.150672242 958.9257074925 -64.9129 255 0 255
138.150672242 958.9257074925 -64.9129 255 0 255
138.1295729679 959.9097813265 -65.5035 255 0 255
138.1295729679 959.9097813265 -65.346 255 0 255
138.150672242 958.9257074925 -64.9129 255 0 255
138.1765607682 959.5563073294 -64.9129 255 0 255
138.1765607682 959.5563073294 -64.9129 255 0 255
138.1765607682 959.5563073294 -64.9129 255 0 255
138.1765607682 959.5563073294 -64.9129 255 0 255
138.2614242838 957.4316382554 -64.9523 255 0 255
138.2555165728 957.7071749298 -64.9129 255 0 255
138.2555165728 957.7071749298 -64.9129 255 0 255
138.2555165728 957.7071749298 -64.9129 255 0 255
138.2555165728 957.7071749298 -64.9129 255 0 255
138.3143176515 956.8027275609 -65.7003 255 0 255
138.3134730803 956.8421185078 -65.5035 255 0 255
138.2687451058 958.9282390624 -64.9917 255 0 255
138.3478008874 957.0791088065 -65.7791 255 0 255
138.3503324573 956.9610359428 -64.9917 255 0 255
138.2895704921 959.7949846268 -65.1885 255 0 255
138.3503324573 956.9610359428 -64.9917 255 0 255
138.3568108517 958.4969277197 -64.9917 255 0 255
138.3357115776 959.4810015536 -64.9129 255 0 255
138.4349220852 956.6871862671 -65.4247 255 0 255
138.4028519602 958.1829425029 -64.9129 255 0 255
138.3758471187 959.4424530343 -64.9917 255 0 255
138.4028519602 958.1829425029 -64.9129 255 0 255
138.4028519602 958.1829425029 -64.9129 255 0 255
138.4028519602 958.1829425029 -64.9129 255 0 255
138.5103278379 956.8463392201 -65.5428 255 0 255
138.4453451605 959.8771426617 -65.8184 255 0 255
138.4453451605 959.8771426617 -65.661 255 0 255
138.5103278379 956.8463392201 -65.5428 255 0 255
138.5103278379 956.8463392201 -65.5428 255 0 255
138.4453451605 959.8771426617 -65.3066 255 0 255
138.5103278379 956.8463392201 -65.5428 255 0 255
138.5103278379 956.8463392201 -65.5428 255 0 255
138.4837915592 959.9173760362 -65.4641 255 0 255
138.4939199824 959.4449846042 -65.0704 255 0 255
138.5653789107 957.9501729165 -64.9917 255 0 255
138.5620049132 958.1075367502 -64.9129 255 0 255
138.5299347883 959.603292986 -65.5428 255 0 255
138.531621787 959.5246110692 -65.2279 255 0 255
138.5620049132 958.1075367502 -64.9129 255 0 255
138.5620049132 958.1075367502 -64.9129 255 0 255
138.5620049132 958.1075367502 -64.9129 255 0 255
138.6309322716 956.7307979263 -65.3066 255 0 255
138.5777650161 959.210528019 -65.8184 255 0 255
138.5870488682 958.7775275339 -65.7791 255 0 255
138.568481164 959.6435285041 -65.3854 255 0 255
138.5786095873 959.1711370721 -65.3066 255 0 255
138.5777650161 959.210528019 -65.1491 255 0 255
138.576920445 959.249918966 -64.9523 255 0 255
138.5870488682 958.7775275339 -64.9129 255 0 255
138.6660046728 956.9283951344 -65.7791 255 0 255
138.6465945411 957.8336870745 -65.7003 255 0 255
138.6457499699 957.8730780214 -64.9917 255 0 255
138.634779119 958.3847604234 -65.7003 255 0 255
138.625495267 958.8177609084 -65.4247 255 0 255
138.6339345479 958.4241513703 -65.1885 255 0 255
138.7037064774 957.0080215994 -65.7397 255 0 255
138.6935801977 957.4803130544 -65.4641 255 0 255
138.7037064774 957.0080215994 -65.3854 255 0 255
138.6935801977 957.4803130544 -65.2673 255 0 255
138.7464735654 956.8514023599 -65.7791 255 0 255
138.7414104256 957.0875480874 -65.5428 255 0 255
138.7456289942 956.8907933069 -65.1491 255 0 255
138.7740490903 957.4033202799 -64.9917 255 0 255
138.733541828 959.2925860769 -64.9917 255 0 255
138.8620148592 956.9720067936 -65.8184 255 0 255
138.8620148592 956.9720067936 -65.6216 255 0 255
138.8645464292 956.8539339299 -64.9917 255 0 255
138.8620148592 956.9720067936 -65.8184 255 0 255
138.8828402456 957.8387523579 -64.9917 255 0 255
138.8900610905 959.3353510214 -65.031 255 0 255
138.9437990294 958.6670493799 -65.6216 255 0 255
138.9446436005 958.627658433 -65.0704 255 0 255
138.9724930132 957.3287569548 -64.9917 255 0 255
139.0211656687 956.8967010179 -65.8184 255 0 255
139.0194786699 956.9753829347 -65.661 255 0 255
139.022854811 956.817919124 -65.3854 255 0 255
139.0203232411 956.9359919878 -65.2279 255 0 255
139.0211656687 956.8967010179 -64.9917 255 0 255
138.9924738284 958.234893466 -64.9523 255 0 255
139.0613012097 956.8581524985 -65.7791 255 0 255
139.033451797 958.1570539768 -65.6216 255 0 255
139.0613012097 956.8581524985 -65.4641 255 0 255
139.030075656 958.3145177875 -65.3066 255 0 255
139.1254622239 959.3798072517 -65.7397 255 0 255
139.2153888793 957.0189924503 -65.4641 255 0 255
139.2547798262 957.0198370215 -65.7003 255 0 255
139.2598429661 956.783691294 -65.346 255 0 255
139.2539373987 957.0591279914 -65.3066 255 0 255
139.2539373987 957.0591279914 -65.1098 255 0 255
139.3034546253 956.5876811075 -65.3854 255 0 255
139.2460666575 959.2642659579 -65.2279 255 0 255
139.4194666255 958.519711849 -65.346 255 0 255
139.4805253863 959.3480110145 -65.5035 255 0 255
208.6109805141 951.0641753535 -64.8342 255 0 255
208.635179898 951.7735570842 -64.8342 255 0 255
208.7434003698 950.3975607109 -64.8342 255 0 255
208.7138618148 951.775244083 -64.8342 255 0 255
208.7296219177 952.8782353518 -64.5192 255 0 255
208.7916991604 951.8163220286 -64.7948 255 0 255
208.9897494462 944.4172672914 -64.5192 255 0 255
209.0071986914 945.4414766664 -64.9523 255 0 255
209.0080432626 945.4020857195 -64.7948 255 0 255
208.8620417734 952.2116207091 -64.8735 255 0 255
208.8401000717 953.234985513 -64.7554 255 0 255
208.8828671597 953.0783662735 -64.4405 255 0 255
209.0782858985 945.7973822564 -65.0704 255 0 255
209.0757543285 945.9154551202 -64.8342 255 0 255
208.9938930892 949.7334776381 -64.6767 255 0 255
208.9711068164 950.7962333889 -64.598 255 0 255
209.1007982835 946.5854459039 -65.3854 255 0 255
209.0780120107 947.6482016547 -64.9129 255 0 255
209.0974221425 946.7429097146 -64.6373 255 0 255
209.0121847621 950.7183960432 -64.9523 255 0 255
209.1233106686 947.3735095514 -64.6373 255 0 255
209.1882933461 944.3427061098 -64.5192 255 0 255
209.0169740141 952.333069714 -64.5192 255 0 255
209.1026821009 950.1690096931 -64.5586 255 0 255
209.0765196869 951.3892292545 -64.4798 255 0 255
209.2298419981 946.0762950719 -65.1885 255 0 255
209.1859564512 948.1231246566 -64.9917 255 0 255
209.2517836998 945.0529302681 -64.7161 255 0 255
209.2306844257 946.037004102 -64.6373 255 0 255
209.1243499148 950.9964642875 -64.5192 255 0 255
209.2110004062 948.7931154404 -64.598 255 0 255
209.2156918248 950.4076869905 -64.5192 255 0 255
209.172650849 952.4151256283 -64.4798 255 0 255
209.1532407172 953.3204175684 -64.4011 255 0 255
209.2398912086 951.1170687212 -64.9129 255 0 255
209.4185313626 944.6233059241 -64.8735 255 0 255
209.4067159406 945.1743792729 -64.6767 255 0 255
209.344264833 948.0871098508 -64.6373 255 0 255
209.3290732699 948.7956470103 -64.7554 255 0 255
209.2438380331 952.7710333619 -64.4011 255 0 255
209.3920950609 947.6943448838 -65.661 255 0 255
209.3887189198 947.8518086944 -65.3854 255 0 255
209.3490540851 949.7017835215 -64.5586 255 0 255
209.435606743 947.4983325538 -64.598 255 0 255
209.3993159058 949.1909435472 -64.7948 255 0 255
209.3402409394 951.9462103144 -64.7161 255 0 255
209.3723110643 950.4504540785 -64.5192 255 0 255
209.5425119373 944.3503008196 -64.7554 255 0 255
209.4581169845 948.2864961783 -64.5586 255 0 255
209.5205680921 945.3737656004 -64.5586 255 0 255
209.5126994945 947.5788035899 -65.2673 255 0 255
209.5321096263 946.6735116499 -64.7554 255 0 255
209.5641797512 945.177755414 -64.7161 255 0 255
209.4375905374 951.0818984865 -65.7791 255 0 255
209.4105835523 952.3415089949 -65.0704 255 0 255
209.4173358345 952.0265813735 -64.9917 255 0 255
209.485694653 948.8383141213 -64.7554 255 0 255
209.4721900887 949.468169364 -64.6767 255 0 255
209.4814739408 949.0351688789 -64.5586 255 0 255
209.3970811315 952.9712642606 -64.5586 255 0 255
209.4308382552 951.3968261079 -64.5586 255 0 255
209.6093784321 944.9030611672 -64.9523 255 0 255
209.60262615 945.2179887885 -64.7948 255 0 255
209.5899683004 945.8083531073 -64.7554 255 0 255
209.5435511835 947.9732555557 -64.7161 255 0 255
209.5663374564 946.9104998049 -64.598 255 0 255
209.4566268044 952.0274238011 -65.031 255 0 255
209.4912284992 950.4135947015 -64.7554 255 0 255
209.4760369361 951.122131861 -64.7161 255 0 255
209.4405928137 952.7752519305 -64.4011 255 0 255
209.607415402 946.8326624593 -65.0704 255 0 255
209.6783057905 943.5263223433 -64.9523 255 0 255
209.5761898483 948.2890277482 -64.8342 255 0 255
209.6479248079 944.9432966853 -64.7554 255 0 255
209.6166992541 946.3996619742 -64.7161 255 0 255
209.6344223871 945.5730519509 -64.7161 255 0 255
209.5053016034 951.5952678872 -65.8184 255 0 255
209.5449664381 949.7452930601 -64.5586 255 0 255
209.6721241917 945.6526784159 -65.2279 255 0 255
209.6138937964 948.3685542362 -64.5586 255 0 255
209.6003913757 948.9983095019 -65.5035 255 0 255
209.5396272669 951.8323581629 -64.9523 255 0 255
209.5320325571 952.1865767541 -64.598 255 0 255
209.548911119 951.3993576778 -64.4405 255 0 255
209.692849601 946.5194218367 -65.4641 255 0 255
209.7358905768 944.5119831989 -64.8342 255 0 255
209.5493818253 953.2107839856 -65.1491 255 0 255
209.7102988463 947.5436312117 -65.5428 255 0 255
209.7373036878 946.2841206804 -65.3854 255 0 255
209.7035465641 947.858558833 -64.9523 255 0 255
209.717893556 947.1894126204 -64.7554 255 0 255
209.7043911353 947.8191678861 -64.7161 255 0 255
209.761779103 945.1425830358 -64.7161 255 0 255
209.7423668276 946.0479749529 -64.6767 255 0 255
209.6638817294 949.7085336601 -65.4641 255 0 255
209.5946804833 952.9360918823 -65.3066 255 0 255
209.5955229108 952.8968009124 -64.8342 255 0 255
209.6444715976 950.6138256002 -64.598 255 0 255
209.6124036163 952.109481859 -64.598 255 0 255
209.6613501595 949.8266065239 -64.5192 255 0 255
209.5879282011 953.2510195036 -64.4798 255 0 255
209.7741630648 946.4030381153 -65.661 255 0 255
209.7615052152 946.993402434 -65.6216 255 0 255
209.7817577746 946.048819524 -65.5428 255 0 255
209.7353428013 948.2136219954 -65.5035 255 0 255
209.8315510325 943.7264532649 -64.9129 255 0 255
209.8315510325 943.7264532649 -64.7161 255 0 255
209.7657237839 946.7966476534 -64.6373 255 0 255
209.7294350903 948.4891586699 -65.5822 255 0 255
209.6838625446 950.6146701714 -64.4798 255 0 255
209.7949884511 947.2697836796 -65.7003 255 0 255
209.8076463007 946.6794193609 -65.3066 255 0 255
209.8582819863 944.3177621318 -64.8342 255 0 255
209.7983645922 947.1123198689 -64.6767 255 0 255
209.7342243423 950.1038323406 -64.7161 255 0 255
209.708064072 951.323951925 -64.4798 255 0 255
209.8190878579 947.9791632667 -65.7003 255 0 255
209.8747866833 945.3813603102 -65.661 255 0 255
209.7313189076 952.0727224591 -64.598 255 0 255
209.9091144904 945.6183506089 -65.4641 255 0 255
209.9167092002 945.2641320176 -65.346 255 0 255
209.8551026638 948.1374716485 -64.6373 255 0 255
209.8981436396 946.1300330108 -64.6373 255 0 255
209.7479235817 953.136322781 -65.1491 255 0 255
209.8365371032 949.0033726417 -64.598 255 0 255
209.9603208593 945.0681218312 -65.5035 255 0 255
209.9535685772 945.3830494525 -64.6767 255 0 255
209.9535685772 945.3830494525 -64.6767 255 0 255
209.8750834789 949.0436081598 -64.6767 255 0 255
209.786472101 953.1764583221 -64.4798 255 0 255
209.9607915657 946.8795481389 -65.8184 255 0 255
210.0097381089 944.5966728038 -64.8735 255 0 255
209.9928595471 945.3838918801 -64.7161 255 0 255
209.9607915657 946.8795481389 -64.7161 255 0 255
210.0122696788 944.47859994 -64.6767 255 0 255
210.0122696788 944.47859994 -64.6767 255 0 255
209.8873696073 950.3039611187 -65.031 255 0 255
209.9109983077 949.201914398 -64.7554 255 0 255
209.8527679124 951.9177902183 -64.598 255 0 255
209.9858355207 947.5495389227 -64.6767 255 0 255
209.9655808178 948.4942218097 -64.7161 255 0 255
209.9124135623 950.9739519025 -64.5586 255 0 255
210.0758621532 945.1887262648 -65.3854 255 0 255
210.0564520214 946.0940182049 -64.7161 255 0 255
210.0758621532 945.1887262648 -64.7161 255 0 255
209.9096081046 952.9428441645 -65.5822 255 0 255
209.9155158156 952.6673074901 -64.598 255 0 255
209.9366129461 951.6833336331 -64.5192 255 0 255
209.9087635334 952.9822351114 -64.4405 255 0 255
210.1009061082 945.8587170486 -64.7161 255 0 255
209.9675646121 952.0777877425 -65.1098 255 0 255
209.9608144735 952.3926153868 -64.5192 255 0 255
210.1528549276 945.2691951574 -65.6216 255 0 255
210.1596072098 944.9542675361 -65.5428 255 0 255
210.1528549276 945.2691951574 -65.6216 255 0 255
210.1596072098 944.9542675361 -65.5428 255 0 255
210.0465204167 950.228655343 -64.598 255 0 255
210.1576463233 946.8837688512 -65.2279 255 0 255
210.2082820088 944.5221116222 -64.9523 255 0 255
210.1905588758 945.3487216454 -64.7554 255 0 255
210.1449863301 947.474233147 -64.7161 255 0 255
210.1643964619 946.5689412069 -64.6767 255 0 255
210.1323284805 948.0645974657 -64.6373 255 0 255
210.0715643717 950.8986461267 -65.7003 255 0 255
210.058061951 951.5284013924 -64.5192 255 0 255
210.0293679671 952.8666938176 -64.4405 255 0 255
210.2426098159 944.7591019208 -65.7003 255 0 255
210.2451413858 944.6410290571 -65.6216 255 0 255
210.2324813927 945.2314933529 -64.7161 255 0 255
210.2426098159 944.7591019208 -64.598 255 0 255
210.0822613348 952.2377831231 -65.661 255 0 255
210.1404938737 949.5218073258 -64.5586 255 0 255
210.2810562147 944.7993352953 -65.5035 255 0 255
210.2540492295 946.0589458037 -65.0704 255 0 255
210.1139575949 952.5928441419 -64.9523 255 0 255
210.1916002656 948.9715764045 -64.7948 255 0 255
210.1814718423 949.4439678365 -64.6373 255 0 255
210.1207098771 952.2779165206 -64.5192 255 0 255
210.3314180124 944.2884974646 -65.4247 255 0 255
210.3288864425 944.4065703283 -65.1491 255 0 255
210.2681223337 947.2406189894 -64.6767 255 0 255
210.3699643882 944.3287329827 -65.1885 255 0 255
210.3446465454 945.5095615972 -65.031 255 0 255
210.3708089593 944.2893420358 -64.8342 255 0 255
210.3699643882 944.3287329827 -64.7554 255 0 255
210.3387388344 945.7850982716 -64.7161 255 0 255
210.3699643882 944.3287329827 -65.1885 255 0 255
210.3890006551 945.2742582973 -64.9129 255 0 255
210.4100999292 944.2901844633 -64.7948 255 0 255
210.4461147351 944.4484928452 -65.4641 255 0 255
210.2807052577 952.1632197979 -65.661 255 0 255
210.2747975467 952.4387564723 -64.598 255 0 255
210.2950522496 951.4940735853 -64.5586 255 0 255
210.4846611108 944.4887283633 -65.7003 255 0 255
210.4449984197 946.3386032134 -65.346 255 0 255
210.4542801282 945.9057027053 -65.3066 255 0 255
210.4078651549 948.0705051767 -64.7161 255 0 255
210.4601878392 945.6301660309 -64.6767 255 0 255
210.4601878392 945.6301660309 -64.6767 255 0 255
210.5181464903 944.7650096318 -64.6767 255 0 255
210.5181464903 944.7650096318 -64.6767 255 0 255
210.4329091099 948.7404959605 -64.6767 255 0 255
210.541401326 945.5137801659 -65.2279 255 0 255
210.5692507387 944.2148786876 -64.7554 255 0 255
210.541401326 945.5137801659 -65.2279 255 0 255
210.443506096 950.0796308132 -65.7791 255 0 255
210.4722000798 948.741338388 -65.0704 255 0 255
210.4089044011 951.6934599128 -64.4405 255 0 255
210.6035785458 944.4518689863 -65.7397 255 0 255
210.607799258 944.2550142287 -65.4247 255 0 255
210.607799258 944.2550142287 -64.9917 255 0 255
210.6052676881 944.3730870924 -64.8342 255 0 255
210.6052676881 944.3730870924 -64.7948 255 0 255
210.5419720094 947.3252086172 -64.7554 255 0 255
210.5816368441 945.4752337901 -64.6767 255 0 255
210.5993599771 944.6486237668 -64.6373 255 0 255
210.4888047539 949.80493871 -65.4641 255 0 255
210.4381690684 952.166595939 -65.1885 255 0 255
210.4820524717 950.1198663313 -64.6767 255 0 255
210.6463456338 944.2952497468 -65.661 255 0 255
210.6514087736 944.0591040193 -64.6767 255 0 255
210.6130592164 947.6811142072 -65.5428 255 0 255
210.6552556211 945.7130665164 -65.5428 255 0 255
210.5899990558 950.5946893562 -65.5035 255 0 255
210.5874674859 950.71276222 -65.3066 255 0 255
210.7424767958 945.3211461205 -65.3066 255 0 255
210.7669500674 944.1797084529 -65.2279 255 0 255
210.7433192234 945.2818551506 -64.9129 255 0 255
210.7644184975 944.2977813167 -64.8342 255 0 255
210.5931013091 952.2880449438 -65.7791 255 0 255
210.6623025553 949.0604867216 -65.7397 255 0 255
210.8045540386 944.2592327973 -65.031 255 0 255
210.7783916246 945.4794523588 -64.7161 255 0 255
210.8087726073 944.0624780168 -64.7161 255 0 255
210.6602416917 950.9899858931 -65.031 255 0 255
210.6593971205 951.0293768401 -64.7554 255 0 255
210.79077773 946.7398074613 -65.8184 255 0 255
210.8431004143 944.2994683154 -65.7397 255 0 255
210.8563289473 945.520532448 -65.7791 255 0 255
210.8850229312 944.1822400229 -65.7003 255 0 255
210.8537973774 945.6386053118 -65.5822 255 0 255
210.8816467901 944.3397038335 -65.5428 255 0 255
210.8554865197 945.5598234179 -65.4247 255 0 255
210.8850229312 944.1822400229 -65.4247 255 0 255
210.8537973774 945.6386053118 -65.5822 255 0 255
210.7643414283 949.810846421 -65.7791 255 0 255
210.9185061671 944.4586212684 -65.661 255 0 255
210.926945448 944.0650117303 -65.4641 255 0 255
210.9193507383 944.4192303215 -64.6767 255 0 255
210.7750383914 951.1499834173 -65.7397 255 0 255
210.7463444075 952.4882758425 -65.661 255 0 255
210.940074004 945.2860737193 -65.3066 255 0 255
210.9417631463 945.2072918254 -65.1491 255 0 255
210.9426077175 945.1679008785 -64.9523 255 0 255
210.940074004 945.2860737193 -64.7161 255 0 255
210.7991377982 951.8593630044 -65.7003 255 0 255
210.8984482828 949.0655498615 -65.8184 255 0 255
211.0483944529 943.9100794895 -65.2279 255 0 255
211.0222320389 945.130299051 -64.6767 255 0 255
211.0539282991 945.4853600698 -65.8184 255 0 255
211.0868408516 943.950312864 -65.4641 255 0 255
211.0513967291 945.6034329335 -65.4247 255 0 255
211.080090713 944.2651405084 -65.1098 255 0 255
211.0935931338 943.6353852427 -64.8342 255 0 255
211.0716514321 944.6587500465 -64.7554 255 0 255
211.099226957 945.2106679665 -64.9523 255 0 255
211.0975378147 945.2894498604 -64.7554 255 0 255
211.0975378147 945.2894498604 -64.7554 255 0 255
211.1740620264 943.5583924682 -65.6216 255 0 255
211.1394624751 945.1721215908 -65.1491 255 0 255
211.1571834645 944.3456115445 -64.9129 255 0 255
211.1990060043 944.2283811084 -65.7003 255 0 255
211.1956320068 944.385744942 -64.8735 255 0 255
211.1956320068 944.385744942 -64.8735 255 0 255
211.2105475386 945.5281271578 -65.8184 255 0 255
211.2274261004 944.7409080815 -64.7161 255 0 255
211.2507830567 945.489580782 -65.4641 255 0 255
211.2541591977 945.3321169714 -65.1098 255 0 255
211.2592223376 945.0959712439 -64.8735 255 0 255
211.3163364175 944.2702057918 -65.8184 255 0 255
211.2960817146 945.2148886788 -64.7948 255 0 255
211.3171788451 944.2309148219 -64.7161 255 0 255
211.3370596832 945.1370491895 -64.7554 255 0 255
211.4000814742 944.035747063 -65.5822 255 0 255
211.4017684729 943.9570651462 -65.346 255 0 255
211.4074022962 945.53234787 -65.6216 255 0 255
211.4107784373 945.3748840594 -65.3066 255 0 255
211.4386278499 944.0759825811 -65.1491 255 0 255
211.4517564059 945.2970445701 -65.1491 255 0 255
211.4703241101 944.4310435999 -65.031 255 0 255
211.4526009771 945.2576536232 -64.9523 255 0 255
211.4526009771 945.2576536232 -64.7948 255 0 255
211.5139336257 944.2351333905 -65.7397 255 0 255
211.5130911981 944.2744243604 -65.4247 255 0 255
211.4962126362 945.0616434368 -64.7554 255 0 255
211.5139336257 944.2351333905 -65.7397 255 0 255
211.5550137149 944.1571960679 -64.9917 255 0 255
211.5541691438 944.1965870148 -64.9917 255 0 255
211.5541691438 944.1965870148 -64.7554 255 0 255
211.5639237022 945.5750128375 -65.4641 255 0 255
211.6294749195 944.3557378242 -64.8342 255 0 255
211.6494557347 945.2618743355 -65.1885 255 0 255
211.651144877 945.1830924416 -64.9917 255 0 255
211.6494557347 945.2618743355 -64.7948 255 0 255
211.7133199532 944.121281239 -64.9917 255 0 255
211.7196983706 945.6571708724 -65.8184 255 0 255
211.7213875129 945.5783889785 -65.4641 255 0 255
211.7196983706 945.6571708724 -65.8184 255 0 255
211.7517684955 944.1614146365 -65.4641 255 0 255
211.7869387302 944.3591139653 -65.7397 255 0 255
211.7852517314 944.4377958821 -65.4641 255 0 255
211.7658415997 945.3430878222 -65.346 255 0 255
211.8086086877 945.1864685827 -65.031 255 0 255
211.8246426784 944.4386404533 -64.8342 255 0 255
211.828861247 944.2418856727 -65.2673 255 0 255
211.8271742483 944.3205675895 -64.8735 255 0 255
211.8246426784 944.4386404533 -64.8342 255 0 255
211.8246426784 944.4386404533 -64.8342 255 0 255
211.8673097893 944.2820190702 -65.7397 255 0 255
211.9050115939 944.3616455352 -64.8735 255 0 255
211.9173976993 945.6220006377 -65.8184 255 0 255
211.9207738404 945.464536827 -65.3066 255 0 255
211.9595941039 943.6539529469 -64.8735 255 0 255
211.9617518091 945.3866973378 -65.1491 255 0 255
211.9634388078 945.308015421 -64.7948 255 0 255
211.982006512 944.4420144508 -64.8342 255 0 255
212.0599438347 944.48309454 -65.7397 255 0 255
212.0675385444 944.1288759488 -65.4247 255 0 255
212.0658515457 944.2075578656 -65.346 255 0 255
212.0731723677 945.7041586726 -65.8184 255 0 255
212.1479096036 944.0517810537 -65.3854 255 0 255
212.1200601909 945.350682532 -65.1885 255 0 255
212.1352496104 944.6422453495 -64.7948 255 0 255
212.1611381366 945.2728451863 -64.9917 255 0 255
212.1619827078 945.2334542394 -64.8342 255 0 255
212.2190967877 944.4076887873 -64.9523 255 0 255
212.2123445055 944.7226164086 -64.8342 255 0 255
212.2313807725 945.6681417232 -65.4641 255 0 255
212.2381330547 945.3532141019 -64.7948 255 0 255
212.2741478605 945.5115224837 -65.3066 255 0 255
212.3028418444 944.1732300585 -64.9129 255 0 255
212.3138126952 943.6615476566 -64.9129 255 0 255
212.3405436489 944.2528565236 -65.4247 255 0 255
212.3177573761 945.3156122743 -64.9917 255 0 255
212.3371696514 944.4102203572 -64.8735 255 0 255
212.3186019473 945.2762213274 -64.8342 255 0 255
212.3798346188 944.2536989511 -64.9129 255 0 255
212.4251332768 943.9790068479 -64.7948 255 0 255
212.4290801012 945.6329714886 -65.661 255 0 255
212.4718471893 945.4763522491 -65.346 255 0 255
212.473534188 945.3976703322 -65.1885 255 0 255
212.4743787592 945.3582793853 -64.9917 255 0 255
212.5572792447 945.1632116035 -64.8342 255 0 255
212.5865439119 945.6363476296 -65.661 255 0 255
212.6228326055 943.9438366132 -64.8342 255 0 255
212.6536842945 944.338288579 -65.5035 255 0 255
212.6300534505 945.4404352767 -65.1885 255 0 255
212.6545288657 944.298897632 -65.1491 255 0 255
212.6528397233 944.3776795259 -64.8735 255 0 255
212.6410243013 944.9287528747 -64.7554 255 0 255
212.6736651097 945.2444250902 -64.8735 255 0 255
212.7383738994 944.0644410469 -64.7948 255 0 255
212.7422186032 945.718503521 -65.661 255 0 255
212.7832986925 945.6405661983 -65.5035 255 0 255
212.8145242463 944.1842009094 -65.346 255 0 255
212.8145242463 944.1842009094 -65.0704 255 0 255
212.8302843492 945.2871921782 -65.2279 255 0 255
212.8302843492 945.2871921782 -64.8735 255 0 255
212.889929999 944.3433538624 -64.9523 255 0 255
212.9342841088 944.1080505625 -64.8342 255 0 255
212.9233132579 944.6197329644 -65.5035 255 0 255
212.914873977 945.0133425026 -64.9129 255 0 255
212.9677673447 944.3844318081 -65.3854 255 0 255
212.9719880569 944.1875770505 -65.1491 255 0 255
212.9390733608 945.7227242332 -65.661 255 0 255
212.9719880569 944.1875770505 -65.1491 255 0 255
212.9542649239 945.0141870737 -64.8735 255 0 255
212.9818404488 945.5661049937 -65.346 255 0 255
212.9843720188 945.44803213 -65.1885 255 0 255
213.0489808314 944.2680459431 -64.9129 255 0 255
213.0489808314 944.2680459431 -64.9129 255 0 255
213.0261945586 945.3308016938 -64.8735 255 0 255
213.1142603045 944.8994903511 -64.8735 255 0 255
213.1328280087 944.0334893809 -64.8342 255 0 255
213.0956947439 945.7653913442 -65.5035 255 0 255
213.0973817427 945.6867094274 -65.346 255 0 255
213.1828159417 945.3734688048 -65.2279 255 0 255
213.1836583693 945.3341778349 -65.0704 255 0 255
213.1836583693 945.3341778349 -64.8735 255 0 255
213.2416170204 944.4690214359 -65.4641 255 0 255
213.2492117301 944.1148028447 -64.9129 255 0 255
213.2492117301 944.1148028447 -64.9129 255 0 255
213.285226536 944.2731112265 -65.1885 255 0 255
213.291134247 943.9975745521 -64.8735 255 0 255
213.2531585546 945.7687674853 -65.7003 255 0 255
213.291134247 943.9975745521 -64.8735 255 0 255
213.2941365232 945.6909279961 -65.5428 255 0 255
213.2941365232 945.6909279961 -65.346 255 0 255
213.3394351812 945.4162358928 -65.2279 255 0 255
213.4007678298 944.3937156602 -65.4641 255 0 255
213.4024569721 944.3149337663 -64.9917 255 0 255
213.3830468403 945.2202257064 -64.9129 255 0 255
213.4024569721 944.3149337663 -64.9917 255 0 255
213.3830468403 945.2202257064 -64.9129 255 0 255
213.4079908183 945.8902143466 -65.661 255 0 255
213.472699608 944.7102303032 -65.5035 255 0 255
213.4870465999 944.0410840906 -64.8735 255 0 255
213.4870465999 944.0410840906 -64.8735 255 0 255
213.4926804232 945.6163668145 -65.3854 255 0 255
213.497743563 945.380221087 -64.8735 255 0 255
213.5230614058 944.1993924725 -64.8735 255 0 255
213.5230614058 944.1993924725 -64.8735 255 0 255
213.5387215317 945.3023815977 -65.2673 255 0 255
213.5387215317 945.3023815977 -65.0704 255 0 255
213.5581316634 944.3970896577 -64.9523 255 0 255
213.5789570498 945.263835222 -64.9129 255 0 255
213.5789570498 945.263835222 -64.9129 255 0 255
213.6242557077 944.9891431187 -64.9523 255 0 255
213.6208795666 945.1466069294 -64.8342 255 0 255
213.6492996627 945.6591339025 -65.7397 255 0 255
213.6953407712 945.3451486858 -65.1098 255 0 255
213.7566755634 944.3225284761 -64.9917 255 0 255
213.7566755634 944.3225284761 -64.9917 255 0 255
213.7969089379 944.2840820773 -65.1885 255 0 255
213.791845798 944.5202278048 -64.9523 255 0 255
213.8041319264 945.7805807637 -65.7397 255 0 255
213.8058189252 945.7018988469 -65.3854 255 0 255
213.8421076188 944.0093878305 -64.9129 255 0 255
213.8421076188 944.0093878305 -64.9129 255 0 255
213.8688407161 944.6005967204 -65.4247 255 0 255
213.8755908547 944.2857690761 -65.1098 255 0 255
213.8930400999 945.3099784511 -65.1098 255 0 255
213.914139374 944.3259046172 -64.9917 255 0 255
213.8930400999 945.3099784511 -64.9129 255 0 255
213.914139374 944.3259046172 -64.9917 255 0 255
213.9599065947 945.8627387987 -65.7003 255 0 255
213.9624381647 945.7446659349 -65.5428 255 0 255
214.0296806679 944.4465090508 -65.4247 255 0 255
214.0220838145 944.8008276191 -64.8342 255 0 255
214.0462853419 945.5101093727 -65.2673 255 0 255
214.1049864436 944.6056598602 -65.2279 255 0 255
214.0897948805 945.3141970198 -64.9129 255 0 255
214.1049864436 944.6056598602 -65.2279 255 0 255
214.1173704054 945.8661149398 -65.5428 255 0 255
214.1182149766 945.8267239928 -65.346 255 0 255
214.1502851015 944.330967757 -64.9523 255 0 255
214.1173704054 945.8661149398 -65.5428 255 0 255
214.1972707582 943.9775937369 -64.9129 255 0 255
214.1972707582 943.9775937369 -64.9129 255 0 255
214.2019600332 945.5922652641 -65.2279 255 0 255
214.24641412 945.3569641078 -64.9523 255 0 255
214.2748342161 945.8694910809 -65.5428 255 0 255
214.3521030219 944.0990405982 -64.9129 255 0 255
214.3521030219 944.0990405982 -64.9129 255 0 255
214.4021909319 945.4390221657 -65.3066 255 0 255
214.4249772048 944.3762664149 -65.1885 255 0 255
214.4030355031 945.3996312188 -65.1098 255 0 255
214.4216010637 944.5337302256 -64.9917 255 0 255
214.4047225018 945.3209493019 -64.9523 255 0 255
214.4216010637 944.5337302256 -64.9917 255 0 255
214.4707465691 945.9130006194 -65.5428 255 0 255
214.5087222614 944.1418076862 -64.9129 255 0 255
214.5287030766 945.0479441974 -65.7003 255 0 255
214.5135115135 945.7564813569 -65.3854 255 0 255
214.6023218536 945.2857769237 -64.9917 255 0 255
214.6056979947 945.128313113 -64.8342 255 0 255
214.6273658086 945.9557677074 -65.5428 255 0 255
214.662809931 944.3026476379 -64.8735 255 0 255
214.6636545022 944.263256691 -64.8735 255 0 255
214.662809931 944.3026476379 -64.8735 255 0 255
214.6636545022 944.263256691 -64.8735 255 0 255
214.6709753242 945.759857498 -65.7791 255 0 255
214.6718198953 945.7204665511 -65.4247 255 0 255
214.7005138792 944.3821741259 -65.1885 255 0 255
214.7005138792 944.3821741259 -64.9129 255 0 255
214.7005138792 944.3821741259 -64.9129 255 0 255
214.7144870063 945.563845168 -65.2673 255 0 255
214.7406494203 944.3436256066 -65.1885 255 0 255
214.816055173 944.5027785596 -65.5035 255 0 255
214.8427861268 945.0940874265 -65.8184 255 0 255
214.8242205662 945.9599884197 -65.7397 255 0 255
214.8638854009 944.1100135926 -64.9129 255 0 255
214.861353831 944.2280864563 -64.8735 255 0 255
214.8638854009 944.1100135926 -64.9129 255 0 255
214.861353831 944.2280864563 -64.8735 255 0 255
214.8862978089 944.8980750965 -65.5428 255 0 255
214.9138733338 945.4499930165 -65.1491 255 0 255
214.9307518957 944.6627739402 -64.9917 255 0 255
214.9752059825 944.4274727839 -65.2279 255 0 255
214.9566404219 945.293373777 -64.9917 255 0 255
214.9752059825 944.4274727839 -65.2279 255 0 255
214.9841159697 945.8452895534 -65.5822 255 0 255
214.9841159697 945.8452895534 -65.4247 255 0 255
215.0195600922 944.1921694839 -64.9129 255 0 255
215.0235069167 945.8461341246 -65.7791 255 0 255
215.0915918475 944.5086862706 -65.2279 255 0 255
215.0797764254 945.0597596194 -64.9523 255 0 255
215.0856841364 944.784222945 -64.9523 255 0 255
215.0915918475 944.5086862706 -65.2279 255 0 255
215.1491744902 945.4944471033 -65.6216 255 0 255
215.1818152985 945.8101193188 -65.8184 255 0 255
215.1818152985 945.8101193188 -65.6216 255 0 255
215.1818152985 945.8101193188 -65.4247 255 0 255
215.2003808591 944.9442183256 -64.9523 255 0 255
215.1986938604 945.0229002424 -64.9129 255 0 255
215.2155724222 944.2356811661 -64.9129 255 0 255
215.2389272349 944.9844538437 -65.661 255 0 255
215.2672473539 945.4969786732 -65.1491 255 0 255
215.2689364963 945.4181967794 -64.9917 255 0 255
215.2714680662 945.3001239156 -64.8342 255 0 255
215.3434976779 945.6167406793 -65.661 255 0 255
215.3553130999 945.0656673304 -64.9129 255 0 255
215.3785700791 945.8143378874 -65.6216 255 0 255
215.4140142015 944.1612178179 -64.9523 255 0 255
215.4441212964 944.5950628742 -65.346 255 0 255
215.4657912539 945.4224174916 -65.1885 255 0 255
215.4759175335 944.9501260366 -64.9917 255 0 255
215.4649466827 945.4618084385 -64.9917 255 0 255
215.5245923325 944.5179701227 -65.2279 255 0 255
215.5368763173 945.7784230586 -65.8184 255 0 255
215.570633441 944.2039849059 -64.9523 255 0 255
215.5461601694 945.3454225735 -64.9129 255 0 255
215.5512233093 945.109276846 -64.9129 255 0 255
215.5804879765 945.5824128722 -65.346 255 0 255
215.6066503905 944.3621933108 -65.2279 255 0 255
215.6300052031 945.1109659884 -64.8735 255 0 255
215.6918085581 945.8998720635 -65.8184 255 0 255
215.6918085581 945.8998720635 -65.6216 255 0 255
215.7078446924 945.151943957 -64.8735 255 0 255
215.7337310749 945.7826437709 -65.661 255 0 255
215.8152184495 943.8154385076 -64.8735 255 0 255
215.8360438358 944.6821840719 -65.2673 255 0 255
215.8208522727 945.3907212315 -65.2279 255 0 255
215.8492723688 945.9032482045 -65.8184 255 0 255
215.879655495 944.4861738855 -64.9917 255 0 255
215.8619323619 945.3127839088 -64.8735 255 0 255
215.890352458 945.8253108819 -65.661 255 0 255
215.890352458 945.8253108819 -65.4641 255 0 255
215.9321749978 945.7080804457 -65.3066 255 0 255
215.9338619966 945.6293985289 -65.1491 255 0 255
215.9693082626 943.9761784824 -64.8342 255 0 255
215.9766290846 945.4727792894 -65.031 255 0 255
216.0058937519 945.9459153155 -65.7003 255 0 255
216.0379617332 944.4502590567 -64.9917 255 0 255
216.0468717205 945.8680758263 -65.661 255 0 255
216.0460271493 945.9074667732 -65.4641 255 0 255
216.0887942373 945.7508475337 -65.3066 255 0 255
216.1031412293 945.0817013211 -64.9917 255 0 255
216.1307167542 945.6336192411 -65.1885 255 0 255
216.167850019 943.9017172778 -64.8735 255 0 255
216.1349374664 945.4367644835 -64.8735 255 0 255
216.1759154351 945.3589249943 -65.0704 255 0 255
216.2437264781 945.8722965385 -65.5035 255 0 255
216.2690443209 944.691467924 -64.9523 255 0 255
216.3325346746 945.4016920823 -65.346 255 0 255
216.3308476758 945.4803739991 -65.031 255 0 255
216.3333792458 945.3623011354 -64.8735 255 0 255
216.3845856147 944.8120723577 -64.9523 255 0 255
216.4011902888 945.8756726796 -65.7003 255 0 255
216.4003457176 945.9150636266 -65.5035 255 0 255
216.4307288438 944.4979893075 -65.1098 255 0 255
216.4691752425 944.538222682 -64.9129 255 0 255
216.4874669154 945.5231410871 -65.2279 255 0 255
216.5119423305 944.3816034425 -64.8735 255 0 255
216.5285470046 945.4452037645 -65.0704 255 0 255
216.5277024334 945.4845947114 -64.8735 255 0 255
216.5577095513 945.9184376241 -65.7003 255 0 255
216.6868532429 945.4092889356 -65.2673 255 0 255
216.6868532429 945.4092889356 -65.0704 255 0 255
216.7062655182 944.5038970185 -64.9523 255 0 255
216.6860108153 945.4485799055 -64.8735 255 0 255
216.6860108153 945.4485799055 -64.8735 255 0 255
216.7537218813 945.9619493062 -65.7003 255 0 255
216.75540888 945.8832673894 -65.5035 255 0 255
216.798175968 945.7266481499 -65.3854 255 0 255
216.8416855066 945.5307357969 -65.0704 255 0 255
216.8416855066 945.5307357969 -64.8735 255 0 255
216.8827655959 945.4527984742 -65.2673 255 0 255
216.9246881127 945.3355701816 -65.346 255 0 255
216.9983068897 945.5734029079 -65.0704 255 0 255
217.0393848354 945.4955655622 -64.9129 255 0 255
217.1464868483 946.0097795341 -65.7397 255 0 255
217.1650524089 945.1438785409 -65.031 255 0 255
217.2412027558 945.2636384034 -65.0704 255 0 255
217.4028872787 945.0701597869 -65.0704 255 0 255
217.4169603829 946.2518329726 -65.7791 255 0 255
217.4867323124 944.8357032017 -65.2279 255 0 255
217.5032370094 945.8993013801 -65.661 255 0 255
217.5158970026 945.3088370843 -65.0704 255 0 255
217.5443149551 945.8214640344 -65.7397 255 0 255
217.7419143068 945.7862916562 -65.8184 255 0 255
217.7461350191 945.5894368986 -65.7003 255 0 255
217.7461350191 945.5894368986 -65.3854 255 0 255
217.7939652469 945.1966719316 -64.9523 255 0 255
217.8434824735 944.7252250477 -64.9917 255 0 255
217.8828734205 944.7260696189 -65.0704 255 0 255
218.0174509813 945.7921993672 -65.4247 255 0 255
218.030953402 945.1624441015 -65.031 255 0 255
218.061905068 945.5568982108 -64.9129 255 0 255
218.1198637191 944.6917418118 -64.9917 255 0 255
218.1524024069 945.0075118607 -64.9917 255 0 255
218.4304706512 944.895346708 -65.031 255 0 255
218.472393168 944.7781184154 -64.9917 255 0 255
218.472393168 944.7781184154 -64.9917 255 0 255
221.6254901856 944.6487779052 -65.346 255 0 255
221.6229586157 944.766850769 -65.0704 255 0 255
221.6254901856 944.6487779052 -65.346 255 0 255
221.6949882274 945.0834675326 -64.9523 255 0 255
221.6873935177 945.4376861239 -65.7791 255 0 255
221.6949882274 945.0834675326 -64.9523 255 0 255
221.7334346261 945.1237009071 -65.2279 255 0 255
221.7778908565 944.8882997738 -64.9129 255 0 255
221.7660754345 945.4393731226 -64.8342 255 0 255
221.7778908565 944.8882997738 -64.9129 255 0 255
221.7953379581 945.9126091258 -65.7791 255 0 255
221.8012456691 945.6370724514 -64.8342 255 0 255
221.8422257814 945.5591329851 -65.5822 255 0 255
221.8472889212 945.3229872576 -65.1491 255 0 255
221.8422257814 945.5591329851 -65.5822 255 0 255
221.8422257814 945.5591329851 -65.5822 255 0 255
221.9704249248 945.0893731001 -64.7948 255 0 255
221.9552355053 945.7978102825 -65.1885 255 0 255
222.008128873 945.1688995881 -64.8342 255 0 255
222.0826900546 945.367443488 -64.7554 255 0 255
222.1554642604 945.6446671612 -65.2279 255 0 255
222.1790951044 944.5425204635 -65.031 255 0 255
222.1723428222 944.8574480848 -64.9129 255 0 255
222.1554642604 945.6446671612 -64.8735 255 0 255
222.1723428222 944.8574480848 -64.9129 255 0 255
222.1956997785 945.6061207854 -65.0704 255 0 255
222.2252383335 944.2284374133 -64.7161 255 0 255
222.2375223183 945.4888903492 -64.7161 255 0 255
222.2375223183 945.4888903492 -64.7161 255 0 255
222.2375223183 945.4888903492 -64.7161 255 0 255
222.2375223183 945.4888903492 -64.7161 255 0 255
222.2659424144 946.0014173223 -65.5428 255 0 255
222.3707867451 944.7828847596 -65.1491 255 0 255
222.3932991302 945.5709484071 -65.0704 255 0 255
222.3932991302 945.5709484071 -64.9129 255 0 255
222.394986129 945.4922664903 -64.7161 255 0 255
222.4242507962 945.9654025165 -65.5428 255 0 255
222.4385977881 945.2962563039 -65.4247 255 0 255
222.4234062251 946.0047934634 -65.346 255 0 255
222.4428163568 945.0995015233 -65.1098 255 0 255
222.5105274228 945.612870924 -65.2673 255 0 255
222.5088404241 945.6915528408 -65.0704 255 0 255
222.5473867998 945.7317883589 -65.5822 255 0 255
222.5507629409 945.5743245482 -64.9129 255 0 255
222.6193164345 946.048402979 -65.7397 255 0 255
222.6294448577 945.576011547 -65.661 255 0 255
222.7082267516 945.5777006893 -65.4641 255 0 255
222.7056951816 945.6957735531 -65.2673 255 0 255
222.7056951816 945.6957735531 -64.9129 255 0 255
222.7584885723 945.066860715 -65.1098 255 0 255
222.7767802451 946.0517791201 -65.5428 255 0 255
222.7767802451 946.0517791201 -65.346 255 0 255
222.8029426591 944.8315595587 -64.9129 255 0 255
222.8029426591 944.8315595587 -64.9129 255 0 255
222.8288311852 945.4621593955 -64.8735 255 0 255
222.8288311852 945.4621593955 -64.8735 255 0 255
222.6921135481 951.8386939 -65.8184 255 0 255
222.8631589923 945.6991496941 -65.1098 255 0 255
222.7087182222 952.902294222 -65.5428 255 0 255
222.7078757946 952.9415851919 -65.346 255 0 255
222.8889453979 946.3298473644 -65.7003 255 0 255
222.9049815321 945.581919258 -64.9129 255 0 255
222.7775477471 951.5254532774 -65.7397 255 0 255
222.9334016282 946.0944462311 -65.3854 255 0 255
222.8042787009 952.1167621444 -65.5822 255 0 255
222.805123272 952.0773711974 -65.4247 255 0 255
222.79330785 952.6284445463 -65.2673 255 0 255
222.7781184305 953.3368817288 -65.2279 255 0 255
222.7924654224 952.6677355162 -65.0704 255 0 255
222.977855715 945.8591450747 -65.8184 255 0 255
222.9820742837 945.6623902942 -65.661 255 0 255
222.9651957218 946.4496093705 -64.9917 255 0 255
222.9905135646 945.268780756 -64.8735 255 0 255
222.9651957218 946.4496093705 -64.9917 255 0 255
222.8765843439 950.5824595328 -65.4641 255 0 255
222.8639243507 951.1729238285 -65.3066 255 0 255
223.0213652536 945.6632327218 -65.5035 255 0 255
223.0171466849 945.8599875023 -65.2279 255 0 255
223.017991256 945.8205965554 -65.0704 255 0 255
223.017991256 945.8205965554 -65.0704 255 0 255
223.017991256 945.8205965554 -65.0704 255 0 255
222.890557471 951.7641305749 -65.3066 255 0 255
222.904904463 951.0949843623 -65.1491 255 0 255
222.9167177414 950.5440109905 -65.1098 255 0 255
223.0835424733 944.6013215422 -65.0704 255 0 255
223.0582246306 945.7821501567 -64.7161 255 0 255
223.0582246306 945.7821501567 -64.7161 255 0 255
222.9046305752 952.9458037605 -64.9917 255 0 255
223.0174434805 949.5222353519 -65.1885 255 0 255
223.1166518444 946.7285200424 -65.7791 255 0 255
223.1174964156 946.6891290955 -65.4247 255 0 255
223.1174964156 946.6891290955 -65.4247 255 0 255
223.1174964156 946.6891290955 -65.4247 255 0 255
223.1174964156 946.6891290955 -65.4247 255 0 255
222.9765602098 953.2624183806 -64.9129 255 0 255
222.9917517729 952.5538812211 -64.9129 255 0 255
223.1990837672 944.7219259758 -65.1491 255 0 255
223.1881129163 945.2336083777 -64.9129 255 0 255
223.1737659244 945.9027545903 -64.8735 255 0 255
223.1746104956 945.8633636434 -64.7161 255 0 255
223.1433849418 947.3197289323 -65.8184 255 0 255
223.1442295129 947.2803379854 -65.2673 255 0 255
223.1746104956 945.8633636434 -64.7161 255 0 255
223.2148460136 945.8248172677 -65.0704 255 0 255
223.1363587718 949.4854759519 -65.8184 255 0 255
223.0815045176 952.0438879615 -65.7791 255 0 255
223.0882546562 951.7290603172 -64.9917 255 0 255
223.0485898215 953.5790351443 -64.8342 255 0 255
223.0629368134 952.9098889317 -64.8342 255 0 255
223.2567685305 945.7075889751 -65.5035 255 0 255
223.1749072912 949.525611493 -65.346 255 0 255
223.1014853328 952.9500244728 -65.346 255 0 255
223.2850886495 946.2201138046 -64.9917 255 0 255
223.1255847396 953.6594040599 -65.2673 255 0 255
223.2023828391 950.0775272694 -65.0704 255 0 255
223.1593418633 952.0849659072 -64.8735 255 0 255
223.327853594 946.0635945421 -65.2279 255 0 255
223.327853594 946.0635945421 -64.8342 255 0 255
223.3413581583 945.4337392994 -64.7554 255 0 255
223.2375530737 950.2752265982 -65.8184 255 0 255
223.2443053559 949.9602989769 -65.5035 255 0 255
223.2316453627 950.5507632726 -65.4247 255 0 255
223.1894489581 952.5188109635 -64.7948 255 0 255
223.2012643801 951.9677376146 -64.7554 255 0 255
223.1767911085 953.1091752822 -64.6373 255 0 255
223.3579628324 946.4973396213 -65.3066 255 0 255
223.2220897664 952.834483179 -65.7791 255 0 255
223.2355921872 952.2047279133 -65.6216 255 0 255
223.249094608 951.5749726476 -65.4641 255 0 255
223.2305290474 952.4408736408 -65.2279 255 0 255
223.272725452 950.4728259499 -64.598 255 0 255
223.4259456426 945.1599896008 -65.1885 255 0 255
223.3845938091 947.0886463447 -65.1491 255 0 255
223.301045571 950.9853507794 -65.7791 255 0 255
223.2942932889 951.3002784008 -65.1491 255 0 255
223.3018879986 950.9460598095 -64.6767 255 0 255
223.4425524602 946.2234899457 -65.1885 255 0 255
223.4408633179 946.3022718395 -64.9917 255 0 255
223.3328396646 951.3405139189 -65.661 255 0 255
223.2931748299 953.190488746 -65.1885 255 0 255
223.3843199213 948.9394657429 -65.031 255 0 255
223.3725044993 949.4905390918 -64.8735 255 0 255
223.3843199213 948.9394657429 -64.8342 255 0 255
223.3851644925 948.900074796 -64.6767 255 0 255
223.5021959665 945.2797516068 -64.7554 255 0 255
223.4701279851 946.7754078657 -64.6767 255 0 255
223.4566255644 947.4051631313 -65.0704 255 0 255
223.34522577 952.6008690214 -65.7791 255 0 255
223.3916428869 950.4359665729 -65.661 255 0 255
223.4102084475 949.5700655798 -65.4247 255 0 255
223.3983930255 950.1211389286 -65.346 255 0 255
223.3283472082 953.3880880977 -64.9523 255 0 255
223.4152715873 949.3339198523 -64.7554 255 0 255
223.4967589619 947.366714589 -64.9129 255 0 255
223.497603533 947.3273236421 -64.7161 255 0 255
223.4030823005 951.7358104558 -65.7791 255 0 255
223.4570941272 949.2166894161 -65.5822 255 0 255
223.4435917064 949.8464446818 -65.2673 255 0 255
223.4300892856 950.4761999474 -65.1885 255 0 255
223.3828297412 952.6803933658 -65.0704 255 0 255
223.3862037387 952.5230295321 -64.4405 255 0 255
223.4005507306 951.8538833195 -64.4405 255 0 255
223.5749701723 945.55697528 -65.5035 255 0 255
223.5420576198 947.0920224858 -64.598 255 0 255
223.4348785377 952.0908736182 -65.1885 255 0 255
223.4551332406 951.1461907312 -65.1491 255 0 255
223.4483809585 951.4611183525 -65.031 255 0 255
223.4272838279 952.4450922095 -64.5586 255 0 255
223.4551332406 951.1461907312 -64.4405 255 0 255
223.5974825574 946.3450389275 -65.0704 255 0 255
223.6303972535 944.8098917447 -64.9129 255 0 255
223.6261765412 945.0067465023 -64.8342 255 0 255
223.5392521621 949.0609147478 -65.7791 255 0 255
223.5392521621 949.0609147478 -65.5822 255 0 255
223.5004318986 950.8714986279 -65.346 255 0 255
223.4801771956 951.816181515 -65.1098 255 0 255
223.4464200719 953.3906196676 -65.031 255 0 255
223.5147788905 950.2023524154 -64.5192 255 0 255
223.4464200719 953.3906196676 -64.4011 255 0 255
223.6495334975 945.7554192029 -65.6216 255 0 255
223.5634515459 949.7702964785 -65.2673 255 0 255
223.5516382675 950.3212698503 -65.1885 255 0 255
223.4706194558 954.1000013983 -64.9917 255 0 255
223.7006398894 945.2051882817 -65.2673 255 0 255
223.5875530963 950.4795760885 -65.3066 255 0 255
223.6229972188 948.826456019 -65.2673 255 0 255
223.5293205574 953.1955518858 -64.9917 255 0 255
223.6103393692 949.4168203378 -64.7161 255 0 255
223.6103393692 949.4168203378 -64.5586 255 0 255
223.5445121205 952.4870147263 -64.4405 255 0 255
223.7130238512 946.4656433612 -64.9129 255 0 255
223.7130238512 946.4656433612 -64.9129 255 0 255
223.6092209102 951.307030683 -64.9917 255 0 255
223.554366656 953.8654426925 -64.9129 255 0 255
223.5670245056 953.2750783738 -64.7948 255 0 255
223.6142840501 951.0708849555 -64.4798 255 0 255
223.7954557739 944.4590492946 -64.9129 255 0 255
223.6739296999 950.1270466396 -65.1885 255 0 255
223.6275147266 952.291849111 -65.031 255 0 255
223.6190754457 952.6854586492 -64.8735 255 0 255
223.6005077415 953.5514596194 -64.6373 255 0 255
223.8161811832 945.3257927153 -64.8342 255 0 255
223.8254628917 944.8928922073 -64.7948 255 0 255
223.731788374 949.261888097 -65.1885 255 0 255
223.6988736779 950.7970352798 -65.1098 255 0 255
223.6921235393 951.1118629241 -64.9523 255 0 255
223.6381117127 953.6309839638 -64.9129 255 0 255
223.6651165542 952.3714734325 -64.8342 255 0 255
223.6524587046 952.9618377512 -64.7554 255 0 255
223.6651165542 952.3714734325 -64.598 255 0 255
223.6853712571 951.4267905455 -64.5586 255 0 255
223.7115336711 950.206570984 -64.5192 255 0 255
223.7115336711 950.206570984 -64.5192 255 0 255
223.6718688364 952.0565458111 -64.4798 255 0 255
223.6313594305 953.9459115851 -64.4405 255 0 255
223.8673854086 944.7756639147 -64.9523 255 0 255
223.822657434 946.8617844693 -64.7948 255 0 255
223.7104152121 952.0967813292 -64.9917 255 0 255
223.7171674943 951.7818537079 -64.9129 255 0 255
223.781876284 950.6018696645 -64.8342 255 0 255
223.9000262169 945.0913361302 -64.7948 255 0 255
223.8966500758 945.2487999408 -64.7161 255 0 255
223.8966500758 945.2487999408 -64.7161 255 0 255
223.8021309869 949.6571867775 -65.0704 255 0 255
223.7295514561 953.0423087874 -65.031 255 0 255
223.8080365543 949.3817500801 -64.9917 255 0 255
223.7211121752 953.4359183256 -64.6373 255 0 255
223.7295514561 953.0423087874 -64.5192 255 0 255
223.7160490353 953.6720640531 -64.4798 255 0 255
223.8279173925 950.2878844478 -65.031 255 0 255
223.8279173925 950.2878844478 -64.7948 255 0 255
223.8203226827 950.642103039 -64.6373 255 0 255
223.9452248978 944.8166418833 -64.8342 255 0 255
223.9258147661 945.7219338234 -64.7554 255 0 255
223.9131547729 946.3123981192 -64.6767 255 0 255
223.9452248978 944.8166418833 -64.8342 255 0 255
223.7874101302 952.1771502448 -64.7948 255 0 255
223.8329826759 950.0516387433 -64.7161 255 0 255
223.7671554273 953.1218331318 -64.5586 255 0 255
223.8453666377 951.3120938228 -64.598 255 0 255
223.8689974817 950.2099471251 -64.5586 255 0 255
223.8394589267 951.5876304972 -64.5586 255 0 255
223.8394589267 951.5876304972 -64.5586 255 0 255
223.8276435047 952.1387038461 -64.5586 255 0 255
223.811609514 952.8865319755 -64.5192 255 0 255
223.8839130135 951.3523293409 -64.8342 255 0 255
223.8771628749 951.6671569852 -64.7948 255 0 255
223.8915098668 950.9980107726 -64.7554 255 0 255
223.8712551639 951.9426936596 -64.5192 255 0 255
224.0273829328 944.660867215 -65.1885 255 0 255
223.8704105927 951.9820846066 -64.7554 255 0 255
223.9370824125 948.8724992711 -64.6767 255 0 255
223.9427162357 950.4477819949 -64.598 255 0 255
224.0498953178 945.4489308625 -64.6767 255 0 255
223.9427162357 950.4477819949 -64.598 255 0 255
224.0571161628 946.9455295259 -65.661 255 0 255
223.9111168172 953.7549645386 -64.4011 255 0 255
223.9741364645 952.6537623891 -65.5822 255 0 255
