1004
23.5294219675 504.1928216981 -60.8587 255 0 255
23.8481728365 400.4137112084 -60.8981 255 0 255
23.6999014407 461.515944013 -60.7012 255 0 255
23.7130818307 457.2246642544 -60.6618 255 0 255
23.8771731254 403.7997162517 -60.9768 255 0 255
23.8730620281 405.1382099382 -60.9374 255 0 255
23.9365458482 384.4691074312 -62.0792 255 0 255
23.9364251414 384.5084072459 -61.5673 255 0 255
23.9359413925 384.665906503 -61.0555 255 0 255
23.6257760674 485.6497301776 -60.8193 255 0 255
23.6228741886 486.5945257212 -60.8193 255 0 255
23.600261771 493.956690995 -60.8193 255 0 255
23.5920389621 496.6338783671 -60.8193 255 0 255
23.5972385711 494.9409863522 -60.8193 255 0 255
23.5863556042 498.4842696391 -60.7799 255 0 255
23.8209443094 422.1067299003 -60.8193 255 0 255
23.6618109029 473.9174855169 -60.8193 255 0 255
23.6522581685 477.0276708466 -60.7799 255 0 255
23.7700361164 438.6814517199 -60.7406 255 0 255
23.7992993896 429.1538966599 -60.8193 255 0 255
23.7383547134 448.9963030663 -60.6618 255 0 255
23.7429289105 460.3349705981 -60.7406 255 0 255
23.7044756379 472.8546115448 -60.8193 255 0 255
23.6741241602 482.7364649336 -60.8193 255 0 255
23.6711012674 483.7206602913 -60.8193 255 0 255
23.6590090819 487.6576417212 -60.7799 255 0 255
23.7299902414 464.547550728 -60.7799 255 0 255
23.9588958959 390.0203022617 -60.9768 255 0 255
23.6338572133 495.8466030951 -60.8193 255 0 255
23.6978250894 475.0199013315 -60.7799 255 0 255
23.8881564573 413.0516936261 -60.8587 255 0 255
23.7856142945 446.4374361506 -60.7012 255 0 255
23.8429316222 427.7760241737 -60.8193 255 0 255
23.7636066398 453.6027023532 -60.7012 255 0 255
23.9321720738 398.7210612215 -60.9374 255 0 255
23.7891213016 458.09100189 -60.7012 255 0 255
23.9569612659 403.4455596442 -60.9374 255 0 255
23.7499425592 470.8468417226 -60.7799 255 0 255
23.7071361612 484.7837759842 -60.8193 255 0 255
23.9917865758 392.1071131259 -60.8981 255 0 255
23.6795658555 493.7601336441 -60.8587 255 0 255
23.6714640605 496.3979212021 -60.8587 255 0 255
23.886826283 426.2801519369 -60.8193 255 0 255
23.9322931461 411.477021761 -60.8981 255 0 255
23.6634832796 498.9963089459 -60.8981 255 0 255
23.6557442194 501.5159970609 -60.8981 255 0 255
23.6529630475 502.4214927898 -60.8587 255 0 255
23.8524844149 437.4611991976 -60.7406 255 0 255
23.8287837928 445.1776628002 -60.7012 255 0 255
23.8105245006 451.1225347592 -60.7406 255 0 255
23.798916064 454.9020169319 -60.6618 255 0 255
23.817296063 448.9178451583 -60.7406 255 0 255
23.6478841453 504.07508499 -60.8981 255 0 255
23.835897441 455.6895342319 -60.7406 255 0 255
23.8320277574 456.9494282892 -60.7012 255 0 255
23.7858357317 471.9886573514 -60.7406 255 0 255
23.8117130701 463.5634970916 -60.7406 255 0 255
23.7079616888 497.3429377591 -60.8587 255 0 255
23.929491018 425.2172779649 -60.8981 255 0 255
23.9308212505 424.7841800077 -60.8587 255 0 255
23.9767715553 409.8236505743 -60.8981 255 0 255
23.6898234106 503.2484099039 -60.8587 255 0 255
23.6974414567 500.7681216031 -60.8587 255 0 255
23.7002226286 499.8626258741 -60.8587 255 0 255
24.0159502977 397.0678107416 -60.9374 255 0 255
23.8458129102 452.4612494592 -60.7012 255 0 255
23.8535519704 449.9415613442 -60.7012 255 0 255
23.9047018842 433.2881398958 -60.7799 255 0 255
24.0919897102 385.1387880236 -60.9374 255 0 255
23.7810989154 486.3588105842 -60.8587 255 0 255
23.7840011013 485.4139150411 -60.8587 255 0 255
23.8544985119 462.461323305 -60.7406 255 0 255
23.7432500984 498.6816524592 -60.8587 255 0 255
23.744701345 498.2091546879 -60.8587 255 0 255
23.755342591 494.7445710298 -60.8587 255 0 255
23.7526821259 495.6107669441 -60.8587 255 0 255
23.8160452392 474.9809642517 -60.8587 255 0 255
23.8199149229 473.7210701944 -60.8193 255 0 255
23.8070969606 477.8943505097 -60.8193 255 0 255
23.9196756066 441.2409233983 -60.7406 255 0 255
24.055108391 397.1466313844 -60.9768 255 0 255
23.9154431881 442.6189168986 -60.7012 255 0 255
23.8259610739 484.5479398332 -60.8587 255 0 255
23.8142316233 488.3668218201 -60.8193 255 0 255
23.8171338092 487.421926277 -60.8193 255 0 255
24.0136322838 423.4458280425 -60.8193 255 0 255
23.8589727095 473.7999905296 -60.8193 255 0 255
23.8558288027 474.8235857015 -60.8193 255 0 255
23.8524428679 475.9259805016 -60.7799 255 0 255
23.8492989611 476.9495756735 -60.7799 255 0 255
23.7783178017 500.0596666667 -60.9374 255 0 255
23.9629658117 439.9418502333 -60.7406 255 0 255
24.0998495355 395.3751604476 -60.9374 255 0 255
23.9919870568 430.4930948016 -60.8193 255 0 255
23.9389024547 447.7764132789 -60.7799 255 0 255
23.9396279244 447.540214393 -60.7012 255 0 255
23.9357582408 448.8001084503 -60.7012 255 0 255
24.1213737485 388.3672935026 -60.9768 255 0 255
23.9363420475 461.437969854 -60.7012 255 0 255
24.1186926343 402.0681498923 -60.8981 255 0 255
23.8710442459 482.6976695752 -60.8193 255 0 255
23.86814206 483.6425651183 -60.8193 255 0 255
23.9237664203 465.5323505414 -60.7799 255 0 255
24.1535182513 390.7296033745 -60.9374 255 0 255
23.8295680805 496.2015058796 -60.8981 255 0 255
24.0573852233 422.0286557417 -60.8193 255 0 255
23.8189268344 499.6660895377 -60.8981 255 0 255
23.8161456625 500.5715852667 -60.8981 255 0 255
23.8110667603 502.2251774669 -60.8981 255 0 255
23.8137272254 501.3589815526 -60.8981 255 0 255
23.8163873833 500.4928856379 -60.8193 255 0 255
24.0752817806 416.2018832257 -60.8193 255 0 255
24.0062350023 438.6821771896 -60.7406 255 0 255
24.0310241361 430.6113152586 -60.8587 255 0 255
24.0358610103 429.0365226866 -60.8193 255 0 255
23.9570197768 454.705701609 -60.7012 255 0 255
23.9606474324 453.5246071801 -60.7012 255 0 255
23.8059881653 503.8786696676 -60.8981 255 0 255
23.9792488104 460.2962962536 -60.7012 255 0 255
23.9879550611 457.4617096239 -60.7012 255 0 255
24.1440655748 406.6351493651 -60.8981 255 0 255
23.9440604585 471.7529422144 -60.7799 255 0 255
23.9666728761 464.3907769406 -60.7799 255 0 255
24.1938855632 390.4147258743 -61.0162 255 0 255
24.1839697868 393.6431106465 -60.9374 255 0 255
23.8631635228 498.0914179798 -60.8587 255 0 255
23.8660657087 497.1465224367 -60.8587 255 0 255
23.8479274305 503.0519945815 -60.8981 255 0 255
23.8606240717 498.9182140799 -60.8587 255 0 255
24.124718078 412.9343196528 -60.8981 255 0 255
24.1207276875 414.2335135247 -60.8981 255 0 255
24.1197601898 414.5485120389 -60.8587 255 0 255
24.049746221 437.3437045175 -60.7406 255 0 255
24.0221759153 446.3200621774 -60.7012 255 0 255
24.0112929483 449.8633454643 -60.7406 255 0 255
23.8428485283 504.7055867818 -60.8981 255 0 255
24.1635340855 400.2965792631 -60.9374 255 0 255
24.0258039363 457.9342281026 -60.7406 255 0 255
24.1970295283 402.1864910561 -60.9374 255 0 255
23.986625194 470.6900679352 -60.8193 255 0 255
23.9798533244 472.8948575356 -60.7799 255 0 255
24.2444310796 386.7534638514 -60.9374 255 0 255
23.9105651324 495.4537511287 -60.8587 255 0 255
24.0584528371 447.3043782419 -60.7406 255 0 255
24.069456818 443.7216951409 -60.7406 255 0 255
24.0653454135 445.060288827 -60.7012 255 0 255
24.0509558049 449.7452667286 -60.7406 255 0 255
23.8804553756 505.2569048887 -60.9768 255 0 255
24.2273603569 405.1392981428 -60.8981 255 0 255
23.978260722 486.2413155969 -60.8587 255 0 255
24.0483953977 463.4068233037 -60.7406 255 0 255
23.9429513561 497.7373613718 -60.9374 255 0 255
23.9554062764 493.682280499 -60.8587 255 0 255
23.9525043976 494.6270760426 -60.8193 255 0 255
24.1626670111 426.2021987923 -60.8193 255 0 255
24.1638762296 425.8085006493 -60.8193 255 0 255
24.0043797811 477.7374557083 -60.8193 255 0 255
24.1196185851 440.2179326822 -60.8193 255 0 255
24.1127260087 442.4620220972 -60.7406 255 0 255
24.0862442146 451.0839814287 -60.7012 255 0 255
24.0822538241 452.3831753006 -60.6618 255 0 255
23.924571357 503.7215331454 -60.9374 255 0 255
24.2474333233 398.6039289691 -60.9374 255 0 255
24.1078684854 456.8714751445 -60.7012 255 0 255
24.2718387661 403.485926956 -60.8981 255 0 255
24.3286720378 384.9821142357 -60.9374 255 0 255
24.3281885961 385.1395134933 -60.7012 255 0 255
24.0203206941 485.3753406961 -60.8587 255 0 255
24.0112517085 488.3280267688 -60.8193 255 0 255
24.0910601326 462.3439493317 -60.7406 255 0 255
24.3124684478 390.2576893516 -60.8981 255 0 255
24.307148132 391.9898811811 -60.8981 255 0 255
23.9846489005 496.9893859145 -60.8981 255 0 255
24.2066616714 424.7063268626 -60.8587 255 0 255
24.2472916603 411.4779892587 -60.8587 255 0 255
24.0530906088 474.7060910214 -60.8193 255 0 255
24.049825688 475.7690860074 -60.7799 255 0 255
23.9718309382 501.1626662297 -60.9374 255 0 255
23.9741286684 500.4145697584 -60.8981 255 0 255
24.1562372273 441.1235494251 -60.7406 255 0 255
24.1417266047 445.8479271409 -60.7406 255 0 255
24.196987923 427.8559120065 -60.7799 255 0 255
24.2240744799 419.0370536037 -60.8193 255 0 255
23.9607059433 504.7847491449 -60.9374 255 0 255
24.1760684729 434.6668798802 -60.7406 255 0 255
24.0988992506 472.6196218775 -60.8193 255 0 255
24.1021641714 471.5566268915 -60.8193 255 0 255
24.0686687869 482.4620754521 -60.8587 255 0 255
24.0656458941 483.4462708098 -60.8587 255 0 255
24.0625016802 484.4699659812 -60.8193 255 0 255
24.0535537086 487.3832522397 -60.8193 255 0 255
24.1210282264 465.4148558613 -60.7799 255 0 255
24.3524730248 390.0609112944 -60.9768 255 0 255
24.0267088726 496.1234110137 -60.8981 255 0 255
24.2891099116 410.6907139867 -60.9374 255 0 255
24.0956343298 473.6826168635 -60.8193 255 0 255
24.0859605814 476.8322020074 -60.7799 255 0 255
24.0056684085 502.9737787016 -60.8981 255 0 255
24.1508959552 455.6905017296 -60.7012 255 0 255
24.1657693126 450.8480245708 -60.7799 255 0 255
24.1725408751 448.64333497 -60.7012 255 0 255
24.2199424264 433.2103077652 -60.7799 255 0 255
24.1729036682 461.3205958807 -60.7012 255 0 255
24.3557380039 401.793276662 -60.9374 255 0 255
24.1446081999 470.533052427 -60.8193 255 0 255
24.0686688452 495.2574358058 -60.8981 255 0 255
24.0645577478 496.5959294923 -60.8981 255 0 255
24.0710872823 494.4700395198 -60.8587 255 0 255
24.3279259773 410.8483339507 -60.8981 255 0 255
24.3307071493 409.9428382218 -60.8587 255 0 255
24.1263489077 476.4779243859 -60.8587 255 0 255
24.0512560367 500.9267090647 -60.9374 255 0 255
24.0473866602 502.1865031225 -60.8981 255 0 255
24.0551257203 499.6668150074 -60.8587 255 0 255
24.1138939874 480.5330052587 -60.8587 255 0 255
24.3761740124 395.1397080459 -60.9374 255 0 255
24.2155893593 447.4229614337 -60.7012 255 0 255
24.2158104311 460.1789222804 -60.7012 255 0 255
24.4478599924 384.6280786422 -62.0792 255 0 255
24.4478599924 384.6280786422 -61.5673 255 0 255
24.4474972576 384.7461780851 -61.0555 255 0 255
24.1421688066 484.1552091879 -60.8981 255 0 255
24.1361227139 486.1236999028 -60.8981 255 0 255
24.1355179511 486.3205989741 -60.8981 255 0 255
24.202750748 464.4309022244 -60.7406 255 0 255
24.0971856924 498.8008401067 -60.8587 255 0 255
24.1593398943 478.5646355578 -60.8587 255 0 255
24.168046145 475.7300489281 -60.8587 255 0 255
24.1738505169 473.8402578419 -60.8587 255 0 255
24.1622417731 477.6198400142 -60.8193 255 0 255
24.0852145209 502.6984217224 -60.9768 255 0 255
24.087753972 501.8716256222 -60.9374 255 0 255
24.090293116 501.0449295216 -60.9374 255 0 255
24.3513639224 416.0453304518 -60.8587 255 0 255
24.2865498697 437.1475309159 -60.7799 255 0 255
24.2823174512 438.5255244162 -60.7406 255 0 255
24.2782060467 439.8641181022 -60.7406 255 0 255
24.4097694546 397.029620146 -60.8981 255 0 255
24.258979564 446.1238885758 -60.7406 255 0 255
24.3119434592 428.8798699132 -60.8193 255 0 255
24.307227599 430.415262671 -60.7799 255 0 255
24.3360068161 421.0453068677 -60.7799 255 0 255
24.2328605048 454.6277484644 -60.7012 255 0 255
24.2366088673 453.4073542208 -60.7012 255 0 255
24.2404785509 452.1474601636 -60.7012 255 0 255
24.0777174888 505.1393102091 -60.9768 255 0 255
24.4003374271 400.1005056611 -60.9374 255 0 255
24.2621028217 457.9349538794 -60.7012 255 0 255
24.1843497927 483.249834473 -60.8981 255 0 255
24.1695974493 488.0529118176 -60.8587 255 0 255
24.1724993281 487.108116274 -60.8587 255 0 255
24.1783037 485.2183251879 -60.8587 255 0 255
24.2457782178 463.2499288095 -60.7799 255 0 255
24.1484359712 494.9426793196 -60.9768 255 0 255
24.1373112834 498.5646622353 -60.9374 255 0 255
24.1428736273 496.7536707774 -60.9374 255 0 255
24.3604122589 425.9273048546 -60.8587 255 0 255
24.3680306122 423.4469165542 -60.7799 255 0 255
24.208050722 475.5332708708 -60.8587 255 0 255
24.2113153356 474.4703758843 -60.8587 255 0 255
24.1261862885 502.1867451504 -60.9768 255 0 255
24.1219541771 503.5646386511 -60.9374 255 0 255
24.1347718323 499.3914583354 -60.9374 255 0 255
24.1321113672 500.2576542497 -60.9374 255 0 255
24.3957216247 414.4312590797 -60.8587 255 0 255
24.3778250674 420.2580315957 -60.8587 255 0 255
24.3727464723 421.9115237964 -60.8193 255 0 255
24.1144568379 506.0056271374 -61.6461 255 0 255
24.1195357401 504.3520349371 -60.9768 255 0 255
24.1143358239 506.0450269515 -60.9374 255 0 255
24.4758930908 388.3289822002 -60.9374 255 0 255
24.3391300739 432.8563721713 -60.8587 255 0 255
24.3051509989 456.7146803427 -60.7406 255 0 255
24.4675496333 403.8408297406 -60.9768 255 0 255
24.2654888148 469.6279194329 -60.7799 255 0 255
24.2260680445 482.4625588939 -60.8587 255 0 255
24.2883429532 462.1870545303 -60.7406 255 0 255
24.1901542229 494.1554037405 -60.9374 255 0 255
24.179271256 497.6986870274 -60.9374 255 0 255
24.2536383502 473.486201234 -60.8587 255 0 255
24.1617374335 503.4073601004 -61.0162 255 0 255
24.1739506329 499.4309788564 -60.8981 255 0 255
24.3410651276 445.0217354965 -60.7012 255 0 255
24.4217200353 418.7620593594 -60.8587 255 0 255
24.1536356385 506.0451476584 -62.1185 255 0 255
24.1535149316 506.084447473 -61.4099 255 0 255
24.1535149316 506.084447473 -61.1736 255 0 255
24.1546031362 505.7301491442 -61.0162 255 0 255
24.3441880782 456.8329007996 -60.7799 255 0 255
24.2963030851 472.4233272619 -60.8587 255 0 255
24.5382681157 393.6441988511 -60.8981 255 0 255
24.2238706792 496.0059160265 -60.8981 255 0 255
24.2013792756 503.3286814861 -60.9768 255 0 255
24.4790164069 412.9354078574 -60.8587 255 0 255
24.392919862 440.9667756377 -60.7799 255 0 255
24.3845760391 443.683362824 -60.7012 255 0 255
24.3885667367 442.3840689525 -60.7012 255 0 255
24.4339122786 427.6204385903 -60.7799 255 0 255
24.3481787758 455.5336069282 -60.7406 255 0 255
24.3618429147 451.0848279124 -60.7012 255 0 255
24.3659543191 449.7462342263 -60.7012 255 0 255
24.1927937318 506.1239683012 -61.8429 255 0 255
24.1963003734 504.9822736864 -61.0162 255 0 255
24.4129928285 434.431406464 -60.7799 255 0 255
24.3704075023 461.1243015723 -60.7406 255 0 255
24.3740351579 459.9432071433 -60.7406 255 0 255
24.3421117269 470.3368581181 -60.8587 255 0 255
24.357831568 465.2187822593 -60.8193 255 0 255
24.2563779169 498.2501264554 -60.9768 255 0 255
24.2712512743 493.4076492967 -60.8981 255 0 255
24.3207085279 477.3053252489 -60.8981 255 0 255
24.3175646211 478.3289204207 -60.8587 255 0 255
24.5232530952 411.3607362995 -60.8587 255 0 255
24.5679941814 396.793905009 -60.9768 255 0 255
24.4128511654 447.3054667536 -60.7012 255 0 255
24.4088607749 448.6046606255 -60.7012 255 0 255
24.5624318375 398.6048964668 -60.8981 255 0 255
24.5286944251 409.5891446558 -60.9374 255 0 255
24.4565040471 433.092933792 -60.7799 255 0 255
24.4208320047 457.5024393635 -60.7012 255 0 255
24.5816586857 405.1403863473 -60.8587 255 0 255
24.3779048999 471.4786734397 -60.8193 255 0 255
24.3845554483 469.3133836531 -60.8193 255 0 255
24.3365494413 484.9432099296 -60.9374 255 0 255
24.3273594417 487.9352958163 -60.8981 255 0 255
24.3335262413 485.9275052868 -60.8981 255 0 255
24.3305033485 486.9117006445 -60.8981 255 0 255
24.403902945 463.0142133653 -60.8193 255 0 255
24.3006356197 496.6360547762 -60.9374 255 0 255
24.5197465118 425.2977912679 -60.8981 255 0 255
24.5214394792 424.7465938678 -60.8193 255 0 255
24.3608548262 477.0298472557 -60.9374 255 0 255
24.2874549226 500.9274345344 -60.9768 255 0 255
24.2901153876 500.0612386201 -60.9374 255 0 255
24.4561413706 446.0063935886 -60.7406 255 0 255
24.5046311264 430.219068055 -60.8193 255 0 255
24.4341337159 453.1716597911 -60.7406 255 0 255
24.4301430182 454.4709536625 -60.7012 255 0 255
24.2771767185 504.27381875 -60.9374 255 0 255
24.4559997075 458.8804538782 -60.7406 255 0 255
24.6263788158 403.4083155318 -60.8981 255 0 255
24.411984091 473.2110862828 -60.8981 255 0 255
24.3816326133 483.0929396716 -60.8981 255 0 255
24.3787304274 484.0378352146 -60.8981 255 0 255
24.4394333827 464.274128437 -60.7799 255 0 255
24.6673715395 390.0618784849 -60.9768 255 0 255
24.6614464608 391.9909693857 -60.8981 255 0 255
24.3371332479 497.5810713333 -60.9374 255 0 255
24.342574885 495.8093796901 -60.9374 255 0 255
24.4053332354 475.376476069 -60.8587 255 0 255
24.3241945788 501.7936514632 -60.9374 255 0 255
24.3214134068 502.6991471921 -60.9374 255 0 255
24.38779972 481.0850491425 -60.9374 255 0 255
24.5881675711 415.8491568502 -60.8587 255 0 255
24.5145259466 439.8254437578 -60.7012 255 0 255
24.6460893545 396.9909458016 -60.8981 255 0 255
24.5407660198 431.282184055 -60.8587 255 0 255
24.4793375948 451.2820897185 -62.0792 255 0 255
24.6772870087 386.8335937122 -60.8981 255 0 255
24.502654833 456.5183860343 -60.7406 255 0 255
24.4989061633 457.7388802774 -60.7406 255 0 255
24.4541650771 472.3057115678 -60.8587 255 0 255
24.3843931362 495.0221044181 -60.8981 255 0 255
24.6043502049 423.4083422093 -60.7799 255 0 255
24.4406216451 476.715190769 -60.8981 255 0 255
24.4412264079 476.5182916978 -60.8193 255 0 255
24.3712124391 499.3134841763 -60.9374 255 0 255
24.6322832455 414.3138851065 -60.8587 255 0 255
24.5580371653 438.4869710857 -60.7406 255 0 255
24.5876631732 428.8413165828 -60.8193 255 0 255
24.5176492044 451.6365090613 -60.7799 255 0 255
24.5274439667 448.4475241033 -60.8193 255 0 255
24.3505347098 506.0457524212 -62.0792 255 0 255
24.3505347098 506.0457524212 -61.8429 255 0 255
24.3505347098 506.0457524212 -61.6067 255 0 255
24.3554925979 504.4315600351 -61.0555 255 0 255
24.3544043934 504.7858583639 -61.0162 255 0 255
24.5737570064 433.3688952269 -60.7799 255 0 255
24.7100153183 401.8337649879 -60.8981 255 0 255
24.7616492881 385.0227442829 -60.8981 255 0 255
24.4464053679 487.6600601583 -60.9374 255 0 255
24.4552326326 484.7860737145 -60.9374 255 0 255
24.4493072467 486.7152646148 -60.9374 255 0 255
24.5250045735 462.0696808642 -60.7406 255 0 255
24.4152074065 497.8175122471 -61.0162 255 0 255
24.4223417038 495.4947232034 -61.0162 255 0 255
24.4114587369 499.0380064903 -60.9768 255 0 255
24.4264531083 494.1561295173 -60.8981 255 0 255
24.4785705198 477.1877095548 -60.8981 255 0 255
24.4869140357 474.471222368 -60.8193 255 0 255
24.3987620957 503.1717869918 -61.0162 255 0 255
24.4037196768 501.5576946053 -60.9768 255 0 255
24.4010595188 502.42379052 -60.9768 255 0 255
24.4692595063 480.2191952557 -60.8981 255 0 255
24.6014273699 437.1878982278 -60.7406 255 0 255
24.7306930476 395.1014967429 -60.9374 255 0 255
24.5819588592 443.5264683297 -60.7406 255 0 255
24.5778474547 444.8650620158 -60.7012 255 0 255
24.6485868932 421.8336706513 -60.8193 255 0 255
24.3898138171 506.0851732498 -61.1343 255 0 255
24.3961016306 504.0379829061 -61.0162 255 0 255
24.5391525195 470.258762945 -60.8587 255 0 255
24.5358875987 471.321757931 -60.8193 255 0 255
24.500457526 482.8571035205 -60.9374 255 0 255
24.4913885404 485.8097895932 -60.9374 255 0 255
24.4973136192 483.8806986924 -60.9374 255 0 255
24.4523305049 498.5263296112 -60.9768 255 0 255
24.4587393325 496.4397394533 -60.9768 255 0 255
24.4559581606 497.3452351822 -60.9768 255 0 255
24.5159356462 477.8177272905 -60.8981 255 0 255
24.5146054137 478.2508252476 -60.8587 255 0 255
24.4454379285 500.7704190262 -60.9768 255 0 255
24.6704738994 427.5030646171 -60.7799 255 0 255
24.6924818612 420.337698415 -60.8193 255 0 255
24.5985252423 450.9281541245 -60.7012 255 0 255
24.6025159399 449.6288602531 -60.7406 255 0 255
24.4294763665 505.9671945138 -61.6855 255 0 255
24.4287508968 506.2033933996 -61.3311 255 0 255
24.4303228502 505.6915958137 -60.9768 255 0 255
24.7905495775 388.408749019 -60.9374 255 0 255
24.6104757647 459.8652329843 -60.7406 255 0 255
24.4925768028 498.2508519251 -60.9768 255 0 255
24.7143478529 426.0464925021 -60.8193 255 0 255
24.5634372553 475.1800607465 -60.8981 255 0 255
24.5601723346 476.2430557326 -60.8587 255 0 255
24.4872561798 499.9831437542 -60.9374 255 0 255
24.7549778417 412.8181548982 -60.8587 255 0 255
24.6688812969 440.8495226785 -60.7406 255 0 255
24.6644071576 442.3062158075 -60.7012 255 0 255
24.7365975356 418.8024266713 -60.8587 255 0 255
24.6238981827 455.4951535973 -60.7012 255 0 255
24.4699643852 505.6130171989 -61.0555 255 0 255
24.47274525 504.7076214695 -61.0555 255 0 255
24.4705691481 505.4161181277 -61.0555 255 0 255
24.6888335565 434.3534533194 -60.7799 255 0 255
24.6535032345 458.6842595693 -60.7406 255 0 255
24.6460062023 461.125148056 -60.7012 255 0 255
24.6210963617 469.2353098016 -60.8193 255 0 255
24.6368162028 464.1172339428 -60.7799 255 0 255
24.6403228445 462.975539328 -60.7799 255 0 255
24.6331885472 465.2983283717 -60.7406 255 0 255
24.8536293647 393.5270669058 -60.8981 255 0 255
24.7585845412 424.4718209442 -60.8587 255 0 255
24.6058599623 474.1959864028 -60.8587 255 0 255
24.5882054329 479.9439592905 -60.9374 255 0 255
24.5850615262 480.9675544624 -60.9374 255 0 255
24.7987307812 411.4009825973 -60.8981 255 0 255
24.7990935161 411.2828831544 -60.8587 255 0 255
24.6890543212 447.1095141656 -60.7406 255 0 255
24.7415347747 430.0228947606 -60.8193 255 0 255
24.6706743221 453.0936859392 -60.7406 255 0 255
24.6669256525 454.3141801823 -60.7012 255 0 255
24.6848222098 448.4874076663 -60.7012 255 0 255
24.5146848224 503.8808463839 -61.0162 255 0 255
24.8331936634 400.1805355224 -60.8981 255 0 255
24.732344468 433.0150806469 -60.7799 255 0 255
24.6961889839 457.581985476 -60.7406 255 0 255
24.8576201206 405.0231333881 -60.8587 255 0 255
24.6483039909 473.1724119383 -60.8981 255 0 255
24.6073112671 486.5188489852 -60.9768 255 0 255
24.5845778356 493.9204140731 -60.9374 255 0 255
24.5817966636 494.8259098021 -60.9374 255 0 255
24.7955869327 425.2199381228 -60.8587 255 0 255
24.6366952471 476.9519941106 -60.9374 255 0 255
24.634397824 477.6999905824 -60.8981 255 0 255
24.5565240882 503.0541709906 -61.0162 255 0 255
24.5669233062 499.6683869608 -61.0162 255 0 255
24.7484274094 440.5741656993 -60.8587 255 0 255
24.7555617067 438.2513766555 -60.7406 255 0 255
24.7512085813 439.6686699704 -60.7406 255 0 255
24.8868830866 395.4956783276 -60.8193 255 0 255
24.7318610846 445.9678402581 -60.7012 255 0 255
24.7137228064 451.8733124029 -60.7406 255 0 255
24.9138486295 386.716219739 -60.8981 255 0 255
24.8397235633 410.8499059041 -60.9374 255 0 255
24.9023402507 403.2910625726 -60.8587 255 0 255
24.6908477118 472.1489377804 -60.8587 255 0 255
24.722287394 461.9127860628 -60.7799 255 0 255
24.9394635979 391.2044195834 -60.9374 255 0 255
24.6728301405 478.0151101106 -60.8981 255 0 255
24.6034209344 500.6134035179 -61.0162 255 0 255
24.6008814834 501.440199618 -61.0162 255 0 255
24.5982213254 502.3062955328 -60.9768 255 0 255
24.7672705083 447.267155144 -60.7406 255 0 255
24.7510669183 452.5427302599 -60.8193 255 0 255
24.8825093122 409.7476321179 -60.8587 255 0 255
24.778253533 456.519232518 -60.7406 255 0 255
24.7332704188 471.1648634367 -60.8587 255 0 255
24.6948171461 483.6845043835 -60.9374 255 0 255
24.6886503465 485.6922949131 -60.9374 255 0 255
24.6919152673 484.6292999271 -60.9374 255 0 255
24.6827249607 487.6214858134 -60.8981 255 0 255
24.9766866958 391.9132372546 -60.8981 255 0 255
24.6478996508 498.9599323316 -60.9768 255 0 255
24.6504387947 498.133236231 -60.9768 255 0 255
24.6530992598 497.2670403168 -60.9768 255 0 255
24.6557594178 496.400944402 -60.9768 255 0 255
24.8805536678 423.2122896217 -60.8193 255 0 255
24.9047380387 415.338326762 -60.8193 255 0 255
24.8144093826 444.747588043 -60.7012 255 0 255
24.885511556 421.5980972356 -60.8587 255 0 255
24.7820022026 455.2987382748 -60.7406 255 0 255
24.799656732 449.5507653872 -60.7406 255 0 255
24.7960290764 450.7318598161 -60.7012 255 0 255
24.6261334098 506.0465989049 -62.0004 255 0 255
24.8080006133 459.6295385545 -60.7799 255 0 255
24.8042519436 460.8500327977 -60.7406 255 0 255
24.9858767536 401.7165117215 -60.8981 255 0 255
24.7671289035 472.9365757873 -60.9374 255 0 255
24.7758351542 470.1019891576 -60.8587 255 0 255
24.7370191467 482.7397295473 -60.9374 255 0 255
24.797722102 462.9760227697 -62.0398 255 0 255
24.7915549953 464.9839132988 -60.8193 255 0 255
24.7003798554 494.6687732798 -60.9768 255 0 255
24.7031610274 493.7632775509 -60.9374 255 0 255
24.6977196975 495.5348691946 -60.9374 255 0 255
24.7638639827 473.9995707733 -60.8981 255 0 255
24.7430652394 480.7712388324 -60.9374 255 0 255
24.7399213326 481.7948340042 -60.9374 255 0 255
24.9424659 415.8502450548 -60.8193 255 0 255
24.8714847405 438.960336048 -62.1185 255 0 255
24.8771677913 437.1100447756 -60.7406 255 0 255
24.8616899782 442.1493210061 -60.7406 255 0 255
25.0064337761 395.0235432912 -60.9374 255 0 255
24.8576995877 443.448514878 -60.7406 255 0 255
24.9026823948 428.8029839587 -60.7799 255 0 255
24.8387148258 449.6295857228 -62.1185 255 0 255
24.8428259231 448.2910920363 -60.7406 255 0 255
24.6651915036 506.1254192406 -61.7642 255 0 255
24.6651915036 506.1254192406 -61.528 255 0 255
24.6650704896 506.1648190547 -61.2918 255 0 255
24.6651915036 506.1254192406 -61.0555 255 0 255
24.6676099407 505.3380229546 -61.0555 255 0 255
24.9950670603 398.7243258351 -60.8587 255 0 255
24.8862370839 434.1572587034 -60.7799 255 0 255
25.0110079732 406.362210823 -60.8981 255 0 255
24.8183788751 469.0785149997 -60.8587 255 0 255
24.8218858239 467.9367203854 -60.8587 255 0 255
24.8230950425 467.5430222424 -60.8193 255 0 255
24.7683171659 485.3776381192 -61.0162 255 0 255
24.8342197302 463.9210393268 -60.8193 255 0 255
24.7355472511 496.046887794 -61.0555 255 0 255
24.7999988761 475.0626867733 -60.8981 255 0 255
24.7967339553 476.1256817593 -60.8587 255 0 255
24.7142650661 502.9759551107 -61.0162 255 0 255
24.7168045172 502.1491590105 -61.0162 255 0 255
24.7194646751 501.2830630958 -61.0162 255 0 255
24.7246642842 499.5901710809 -61.0162 255 0 255
24.7852462255 479.8658641174 -60.9374 255 0 255
25.0396664835 397.0315548343 -60.8587 255 0 255
24.9686853241 420.1416458275 -60.8587 255 0 255
24.8582833943 456.0863762817 -60.8193 255 0 255
24.7085814011 504.8264463822 -61.0555 255 0 255
24.711846629 503.7633513966 -61.0162 255 0 255
25.0610696825 390.0630877035 -60.9374 255 0 255
24.9296272886 432.8581858455 -60.7799 255 0 255
24.8489514246 471.9526224576 -60.8981 255 0 255
24.8135213519 483.4879680471 -60.9768 255 0 255
24.810498152 484.4722634043 -60.9768 255 0 255
24.8046940872 486.3619544909 -60.9768 255 0 255
24.8015501804 487.3855496628 -60.9374 255 0 255
24.8713221213 464.6691568126 -60.8587 255 0 255
24.7612829264 500.4957878238 -61.0162 255 0 255
24.8244043188 479.9446847602 -60.9768 255 0 255
25.0309392766 412.7009019389 -60.8587 255 0 255
25.0258606816 414.3543941396 -60.8193 255 0 255
25.0800334882 396.7167773336 -60.9374 255 0 255
24.9855934276 427.4646323006 -60.7799 255 0 255
25.0126799844 418.6457738978 -60.8587 255 0 255
24.9072359429 452.9763119659 -60.7406 255 0 255
24.9033665664 454.2361060237 -60.7012 255 0 255
24.7445955876 505.9288621968 -61.0949 255 0 255
25.0696342701 400.1025613634 -60.8981 255 0 255
24.7930856506 490.1414366637 -60.9768 255 0 255
24.9681806191 433.1339055595 -60.8981 255 0 255
24.9291019345 458.685106053 -60.7406 255 0 255
24.9328506042 457.4646118099 -60.7406 255 0 255
25.0947654897 404.7482604649 -60.9374 255 0 255
24.8947600664 469.8661533137 -60.8981 255 0 255
24.919790921 461.7165917539 -60.8193 255 0 255
24.8194257816 494.3935376218 -61.0162 255 0 255
24.8220859395 493.527441707 -61.0162 255 0 255
24.8086635215 497.897521094 -61.0162 255 0 255
25.0340625344 424.5119672425 -60.8193 255 0 255
25.0294673811 426.0080601856 -60.7799 255 0 255
24.8763800673 475.8503250873 -60.9374 255 0 255
24.8732361605 476.8739202591 -60.9374 255 0 255
24.8832726437 473.6062356723 -60.8981 255 0 255
24.8699712397 477.9369152451 -60.8981 255 0 255
24.7966923501 501.7951027097 -61.0949 255 0 255
24.9878702016 439.5512963043 -60.7406 255 0 255
24.9835170763 440.9685896191 -60.7012 255 0 255
24.9645323144 447.1496604639 -60.7012 255 0 255
24.7832699321 506.1651820967 -61.213 255 0 255
25.1390228271 390.3389284315 -60.8587 255 0 255
24.9372040949 468.8425788492 -60.8981 255 0 255
24.9304322253 471.0473684495 -60.8587 255 0 255
24.8948811386 482.6221138532 -60.9768 255 0 255
24.9553423731 462.9371067044 -60.7799 255 0 255
25.175057721 391.4020441244 -60.8981 255 0 255
24.8449404434 498.8818371586 -60.9768 255 0 255
24.8503817733 497.1102455149 -60.9768 255 0 255
24.8559444243 495.2991540575 -60.9768 255 0 255
24.9187027747 474.8662504364 -60.9374 255 0 255
24.8384106018 501.0078271306 -61.0949 255 0 255
24.8332109927 502.7007191455 -61.0555 255 0 255
24.8981460594 481.5591188672 -60.9768 255 0 255
25.0314024347 438.1734235109 -60.7406 255 0 255
25.0131431425 444.1182954698 -62.0792 255 0 255
25.0078225195 445.8505872989 -60.7012 255 0 255
25.0612701636 428.4490693792 -60.8587 255 0 255
25.0563122754 430.0632617653 -60.8193 255 0 255
25.051838136 431.5199548943 -60.7799 255 0 255
24.9835171346 453.7639499728 -61.8823 255 0 255
24.9846053391 453.4096516439 -60.8193 255 0 255
24.9893215064 451.8741588866 -60.7012 255 0 255
24.8229324815 506.0472033606 -61.7642 255 0 255
24.8257139606 505.1416076322 -61.0555 255 0 255
24.8306715417 503.5275152456 -61.0555 255 0 255
24.8281323977 504.3542113462 -61.0555 255 0 255
24.8254719326 505.2204072605 -61.0555 255 0 255
25.1796528743 389.9059511812 -60.9374 255 0 255
25.0474850107 432.9372482091 -60.8981 255 0 255
25.0016347637 460.6931383034 -60.7799 255 0 255
25.0052624194 459.5120438744 -60.7799 255 0 255
25.0150568746 456.3231589159 -60.7406 255 0 255
24.9647534445 472.7009816642 -60.9768 255 0 255
24.9267839207 485.0631233539 -61.0555 255 0 255
24.9877285969 465.2207169475 -62.0398 255 0 255
24.9888168014 464.8664186187 -60.8193 255 0 255
25.2076859727 393.6068547392 -60.8587 255 0 255
24.8856704901 498.4488602154 -61.0162 255 0 255
25.1096182564 425.5358041352 -60.8981 255 0 255
25.1171152885 423.0949156485 -60.8193 255 0 255
24.9434712595 479.6300489809 -60.9768 255 0 255
24.9403270455 480.6537441523 -60.9374 255 0 255
25.150610673 412.1894670878 -60.8981 255 0 255
25.1535128589 411.2445715448 -60.8587 255 0 255
25.0573798309 442.5436239119 -62.0792 255 0 255
25.0478267894 445.6539092412 -60.7406 255 0 255
25.0509710033 444.6302140698 -60.7012 255 0 255
25.0365810876 449.315291971 -60.7406 255 0 255
25.0327117111 450.5750860287 -60.7406 255 0 255
24.8622115888 506.0866241892 -61.961 255 0 255
24.8623322957 506.0473243746 -61.528 255 0 255
25.1925705873 398.5281315263 -60.8587 255 0 255
25.2236475346 388.4100792516 -60.8981 255 0 255
25.1589541888 409.4729799011 -60.8981 255 0 255
25.0522802796 457.0318765876 -60.7406 255 0 255
25.2175807929 403.2132304419 -60.8981 255 0 255
24.9687231859 484.2364482678 -61.0162 255 0 255
24.9567517073 488.134129883 -60.9768 255 0 255
24.9597749072 487.1498345258 -60.9768 255 0 255
24.9326883504 495.9686929286 -61.0555 255 0 255
24.9299071784 496.8741886575 -61.0555 255 0 255
24.9274887413 497.6615849434 -61.0162 255 0 255
24.9244655414 498.6458803007 -61.0162 255 0 255
24.9272467133 497.7403845718 -61.0162 255 0 255
24.9890378732 477.6223794653 -60.9768 255 0 255
25.000525603 473.8821971072 -60.8981 255 0 255
24.9152755419 501.6379661875 -61.1343 255 0 255
24.9195076532 500.2600726868 -61.0555 255 0 255
24.9220471043 499.4332765866 -61.0162 255 0 255
24.9780341994 481.2049625668 -60.9768 255 0 255
25.1791275202 415.7328713887 -60.8587 255 0 255
25.1018582401 440.8902527252 -61.961 255 0 255
25.1138297187 436.9925711099 -60.7406 255 0 255
25.0943612079 443.3311412119 -60.7012 255 0 255
24.901490389 506.1261450174 -61.2524 255 0 255
25.1186665929 435.417778538 -60.7799 255 0 255
25.0872269689 458.4492906093 -60.7799 255 0 255
25.0462342452 471.7957276562 -60.9374 255 0 255
25.0582054167 467.8981460405 -60.8587 255 0 255
25.0108041725 483.3310732457 -61.0162 255 0 255
25.0018558938 486.2444595037 -60.9768 255 0 255
25.0704186161 463.9217647965 -62.0004 255 0 255
25.0706606441 463.8429651681 -60.8193 255 0 255
25.0741672858 462.7012705533 -60.8193 255 0 255
25.2919479454 391.7961050022 -60.8981 255 0 255
25.0249520602 478.7247949728 -60.9374 255 0 255
24.9569937936 500.8506906083 -61.0949 255 0 255
25.223385223 414.1187997095 -60.8587 255 0 255
25.1274939158 445.3391524478 -62.1185 255 0 255
25.183238983 427.1896380563 -60.8193 255 0 255
25.2051259308 420.0636716684 -60.8587 255 0 255
25.2004100706 421.5990644262 -60.8193 255 0 255
25.0970214242 455.2604056508 -60.7012 255 0 255
24.9418784082 505.7719673954 -61.1343 255 0 255
25.3077888005 386.6386293292 -60.8981 255 0 255
25.3012383098 401.5992797767 -60.8981 255 0 255
25.0888989801 470.7328536842 -60.9374 255 0 255
25.0922849149 469.630458884 -60.9374 255 0 255
25.0982099937 467.7013679832 -60.8981 255 0 255
25.0423439125 485.8902821889 -61.0555 255 0 255
25.118887723 460.9690997383 -62.0792 255 0 255
25.0165875882 494.2760426345 -61.0162 255 0 255
25.0192477461 493.4099467198 -61.0162 255 0 255
25.0136854022 495.2209381776 -61.0162 255 0 255
25.0706396879 476.6777256431 -60.9374 255 0 255
24.9986910308 500.1028151505 -61.0949 255 0 255
25.1770512272 442.0321890608 -60.7406 255 0 255
25.3158696393 396.8356022462 -60.8981 255 0 255
25.1742700553 442.9376847897 -62.0004 255 0 255
25.1437975636 452.8589379927 -61.8823 255 0 255
25.1390817034 454.3943307505 -60.8587 255 0 255
25.1436765496 452.8983378068 -60.7406 255 0 255
25.1399281871 454.1187320504 -60.7012 255 0 255
25.1556480282 449.0006561916 -61.961 255 0 255
25.1580664653 448.2132599056 -60.7406 255 0 255
24.9836966594 504.9846921235 -62.1185 255 0 255
24.982124706 505.4964897094 -61.1736 255 0 255
24.9859943897 504.2365956521 -61.0949 255 0 255
24.9884128268 503.4491993661 -61.0949 255 0 255
24.9836966594 504.9846921235 -61.0949 255 0 255
25.027954304 490.5752600905 -61.0555 255 0 255
25.1669937878 458.1346341226 -60.8587 255 0 255
25.0763023968 487.6619948465 -60.9768 255 0 255
25.1459533237 464.9850018105 -61.8823 255 0 255
25.2663917366 425.7725867694 -60.8193 255 0 255
25.1055653628 478.1345397861 -60.9768 255 0 255
25.1193505156 473.6463609562 -60.9374 255 0 255
25.0406302961 499.2761400644 -61.0555 255 0 255
25.030231078 502.6619240942 -61.0555 255 0 255
25.0973428609 480.8116271587 -61.0162 255 0 255
25.0923849727 482.4258195448 -60.9768 255 0 255
25.3070217255 412.5442491655 -60.8981 255 0 255
25.2247945572 439.3158228881 -60.7799 255 0 255
25.2204414319 440.7331162029 -60.7406 255 0 255
25.2052053396 445.6936928046 -60.7406 255 0 255
25.2012149491 446.9928866765 -60.7012 255 0 255
25.177030271 454.8669495358 -61.9217 255 0 255
25.1869460474 451.6385647636 -60.7406 255 0 255
25.0203153016 505.8903088664 -61.6855 255 0 255
25.0701352901 489.6698853756 -62.1185 255 0 255
25.3759471827 390.1034550153 -60.8981 255 0 255
25.2448678308 432.7803537149 -60.8193 255 0 255
25.1991593051 460.4575438732 -60.8193 255 0 255
25.2083493047 457.4654579864 -60.7406 255 0 255
25.3705059111 404.6704070126 -60.9374 255 0 255
25.1147557277 487.9377142534 -61.0162 255 0 255
25.1234619784 485.1031276238 -61.0162 255 0 255
25.186099622 464.7095238173 -60.8587 255 0 255
25.1954106355 461.6780381163 -60.7799 255 0 255
25.0928687799 495.0636806413 -62.0792 255 0 255
25.0906920636 495.7723772985 -61.0949 255 0 255
25.0934732356 494.8668815696 -61.0949 255 0 255
25.0825902687 498.4101648565 -61.0555 255 0 255
25.0852507337 497.5439689422 -61.0555 255 0 255
25.1521204887 475.772471635 -60.9374 255 0 255
25.1552647026 474.7487764636 -60.9374 255 0 255
25.1475256425 477.2684645787 -60.9374 255 0 255
25.1376098661 480.4968493509 -60.9768 255 0 255
25.1345869733 481.4810447086 -60.9768 255 0 255
25.2569600745 441.6387326387 -61.961 255 0 255
25.4000109051 395.0641523239 -60.8981 255 0 255
25.2883997568 431.402580921 -60.7799 255 0 255
25.3275784991 418.6467410884 -60.8193 255 0 255
25.2120979743 456.2449637433 -60.7406 255 0 255
25.2338639082 449.1583971696 -60.8587 255 0 255
25.2297525037 450.4969908556 -60.7406 255 0 255
25.0592523814 506.0085290162 -61.4886 255 0 255
25.0613080837 505.3392321731 -61.0555 255 0 255
25.1090723698 489.7881055254 -61.0162 255 0 255
25.2008313164 472.7411069481 -60.9374 255 0 255
25.2130445158 468.7647257041 -60.8981 255 0 255
25.2165511575 467.6230310893 -60.8981 255 0 255
25.1658849925 484.1189532805 -61.0555 255 0 255
25.1568156998 487.0717393527 -60.9768 255 0 255
25.2290063849 463.5678502169 -60.8587 255 0 255
25.1229575805 498.0952873563 -62.0792 255 0 255
25.1271896918 496.7173938556 -61.0555 255 0 255
25.3493237839 424.3948349901 -60.8193 255 0 255
25.1915203028 475.772592649 -61.8823 255 0 255
25.1829350661 478.5677794646 -60.9768 255 0 255
25.1861996798 477.5048844781 -60.9768 255 0 255
25.1177579715 499.7881793712 -61.1343 255 0 255
25.1783399128 480.0638724077 -62.1185 255 0 255
25.1799118662 479.5520748218 -60.9768 255 0 255
25.311595981 436.678277051 -60.7799 255 0 255
25.3070011348 438.1742699946 -60.7406 255 0 255
25.2877743449 444.4341404677 -60.7406 255 0 255
25.3322737103 429.946008806 -60.8193 255 0 255
25.3542816721 422.780642604 -60.8587 255 0 255
25.2552464581 455.0245905142 -60.7799 255 0 255
25.2731427083 449.1979179977 -60.7406 255 0 255
25.0996196933 505.693651516 -62.0398 255 0 255
25.424174627 400.0248499396 -60.8981 255 0 255
25.1380729659 493.1740105692 -61.0555 255 0 255
25.3916464331 410.6153999856 -60.9374 255 0 255
25.2809818263 459.4735905435 -60.7799 255 0 255
25.2419240979 472.190030562 -62.1185 255 0 255
25.2433750373 471.7176327902 -60.9374 255 0 255
25.2467609721 470.6152379901 -60.9374 255 0 255
25.1946435606 487.5836579526 -62.1185 255 0 255
25.2080659786 483.2135785656 -61.0162 255 0 255
25.2751777615 461.3632816301 -61.8823 255 0 255
25.1759005195 493.6860291687 -62.1185 255 0 255
25.1703381756 495.4970206265 -62.1185 255 0 255
25.1675570037 496.4025163554 -62.0792 255 0 255
25.1609064553 498.5678061421 -61.961 255 0 255
25.1744495801 494.1584269404 -61.0162 255 0 255
25.2285016799 476.560109949 -60.9768 255 0 255
25.1543766137 500.6937961141 -62.0792 255 0 255
25.1491770046 502.386688129 -62.0398 255 0 255
25.1491770046 502.386688129 -61.8036 255 0 255
25.1543766137 500.6937961141 -61.1343 255 0 255
25.1491770046 502.386688129 -61.1343 255 0 255
25.1515954417 501.599291843 -61.0949 255 0 255
25.2142330853 481.2056880365 -62.0792 255 0 255
25.2112098854 482.1899833937 -61.0162 255 0 255
25.4293532798 411.1667183997 -60.8587 255 0 255
25.3288671264 443.8830640816 -62.0398 255 0 255
25.3309228287 443.2137672386 -60.7406 255 0 255
25.3690133665 430.8122257348 -62.1185 255 0 255
25.2982739279 453.8436170992 -60.7799 255 0 255
25.3162911921 447.9775447686 -60.7799 255 0 255
25.1378102889 506.0874706729 -61.9217 255 0 255
25.1403494328 505.2607745723 -61.9217 255 0 255
25.1378102889 506.0874706729 -61.6855 255 0 255
25.1378102889 506.0874706729 -61.213 255 0 255
25.1466375536 503.2134842291 -61.1343 255 0 255
25.1414379445 504.906376244 -61.0949 255 0 255
25.180011924 492.3474354826 -61.0555 255 0 255
25.4992462347 388.4109257353 -60.8587 255 0 255
25.3603068086 433.646912364 -60.8981 255 0 255
25.3551071996 435.3398043789 -60.7799 255 0 255
25.3278789797 457.0327230713 -61.9217 255 0 255
25.4919702744 403.6077750686 -60.9374 255 0 255
25.2457728254 483.7648969797 -62.1185 255 0 255
25.2427499326 484.7490923374 -62.1185 255 0 255
25.2398477466 485.6939878805 -62.1185 255 0 255
25.2375500164 486.4420843518 -61.9217 255 0 255
25.2368245467 486.6782832377 -61.0949 255 0 255
25.2479495416 483.0562003225 -61.0949 255 0 255
25.2375500164 486.4420843518 -61.0555 255 0 255
25.31094992 462.5444970731 -61.9217 255 0 255
25.3144565617 461.4028024583 -60.8193 255 0 255
25.3110706269 462.5051972585 -60.8193 255 0 255
25.5275213611 392.0330296649 -60.8981 255 0 255
25.2040546319 497.3475329125 -62.0792 255 0 255
25.1987340089 499.0798247415 -62.0398 255 0 255
25.2163888454 493.3317518543 -62.0004 255 0 255
25.2137283803 494.1979477686 -62.0004 255 0 255
25.2109472083 495.1034434975 -61.961 255 0 255
25.2055058785 496.8750351412 -61.961 255 0 255
25.2027247065 497.7805308701 -61.9217 255 0 255
25.2059893202 496.7176358836 -61.9217 255 0 255
25.206715097 496.4813369982 -61.8429 255 0 255
25.2017572088 498.0955293843 -61.8429 255 0 255
25.2040546319 497.3475329125 -61.8036 255 0 255
25.2000642414 498.6467267844 -61.6855 255 0 255
25.2105844735 495.2215429404 -61.213 255 0 255
25.2094962689 495.5758412693 -61.0949 255 0 255
25.2061103342 496.6782360694 -61.0949 255 0 255
25.206715097 496.4813369982 -61.0949 255 0 255
25.2778172704 473.3318461908 -62.0792 255 0 255
25.2741896148 474.5129406198 -62.0004 255 0 255
25.2744313356 474.434240991 -61.0162 255 0 255
25.2711664148 475.497235977 -60.9768 255 0 255
25.1961948649 499.9065208421 -62.0398 255 0 255
25.1909952559 501.599412857 -62.0398 255 0 255
25.1920834604 501.2451145282 -61.9217 255 0 255
25.1894229954 502.1113104425 -61.8823 255 0 255
25.1946229115 500.418318428 -61.6461 255 0 255
25.1883347908 502.4656087713 -61.4886 255 0 255
25.2535118855 481.2452088647 -61.0162 255 0 255
25.3772152193 440.9697988376 -60.8587 255 0 255
25.3786661587 440.4974010659 -60.7799 255 0 255
25.5148244128 396.166910166 -60.8981 255 0 255
25.5230472217 393.4897227939 -60.8587 255 0 255
25.4153057571 428.5682573338 -60.8193 255 0 255
25.4373134118 421.4029911313 -60.8587 255 0 255
25.1857953397 503.2924048714 -62.0398 255 0 255
25.1804750238 505.0245967009 -62.0004 255 0 255
25.1810791724 504.8278976287 -61.9217 255 0 255
25.1868838514 502.9380065431 -61.8823 255 0 255
25.1780565867 505.8119929869 -61.7642 255 0 255
25.1856746329 503.331704686 -61.7642 255 0 255
25.1812001864 504.7884978146 -61.6855 255 0 255
25.179991275 505.182095958 -61.2524 255 0 255
25.1843444003 503.7648026432 -61.1736 255 0 255
25.1831351818 504.1585007862 -61.0555 255 0 255
25.2277555611 489.6309693103 -62.0398 255 0 255
25.2191700173 492.4262561254 -62.0004 255 0 255
25.2178397848 492.8593540825 -61.8823 255 0 255
25.2220722033 491.4813605823 -61.0162 255 0 255
25.2248533752 490.5758648534 -61.0162 255 0 255
25.473952703 409.4739473988 -60.8981 255 0 255
25.3986184183 434.0013317068 -60.7799 255 0 255
25.3578677808 460.0643294791 -61.8429 255 0 255
25.3629463758 458.4108372783 -61.8429 255 0 255
25.3571423111 460.300528365 -60.8193 255 0 255
25.3668160595 457.1509432211 -60.7799 255 0 255
25.3629463758 458.4108372783 -60.7406 255 0 255
25.5323582935 403.2535974466 -60.8981 255 0 255
25.3284838008 469.6311843537 -60.8981 255 0 255
25.2813239703 484.9855119297 -62.0398 255 0 255
25.27189225 488.0562974452 -61.7642 255 0 255
25.2847099051 483.8831171295 -61.0949 255 0 255
25.2787848264 485.8122080303 -61.0555 255 0 255
25.3462593442 463.8438116518 -61.8429 255 0 255
25.2513355347 494.749165876 -62.0792 255 0 255
25.247344837 496.0484597474 -61.9217 255 0 255
25.2377921027 499.1586450771 -61.8036 255 0 255
25.2484333487 495.6940614191 -61.8036 255 0 255
25.2403315537 498.331848977 -61.7642 255 0 255
25.2526654601 494.3161679184 -61.7248 255 0 255
25.2500053021 495.1822638331 -61.7248 255 0 255
25.2417824931 497.8594512052 -61.6855 255 0 255
25.2541167066 493.8436701471 -61.3311 255 0 255
25.2432337397 497.3869534339 -61.0949 255 0 255
25.2513355347 494.749165876 -61.0949 255 0 255
25.2379131167 499.119245263 -61.0555 255 0 255
25.2404522606 498.2925491624 -61.0555 255 0 255
25.311796462 475.0642587267 -62.1185 255 0 255
25.3099824806 475.6548559409 -62.0004 255 0 255
25.3134894294 474.5130613266 -62.0004 255 0 255
25.3051456064 477.2296485129 -61.0555 255 0 255
25.3091359969 475.930454641 -61.0162 255 0 255
25.3167543502 473.4500663406 -60.9768 255 0 255
25.2364618701 499.5917430343 -61.8823 255 0 255
25.2352526516 499.9854411773 -61.7642 255 0 255
25.2299320285 501.7177330063 -61.7642 255 0 255
25.2893050585 482.3870241863 -62.0004 255 0 255
25.2948674024 480.5760327285 -61.528 255 0 255
25.2958345929 480.2611342138 -61.0162 255 0 255
25.2907559979 481.9146264146 -61.0162 255 0 255
25.4942677557 415.6551389505 -60.8193 255 0 255
25.4132501131 442.0329145305 -60.7012 255 0 255
25.3986184765 446.7966920605 -60.7406 255 0 255
25.4507358881 429.828272098 -61.9217 255 0 255
25.458837683 427.19048454 -60.8193 255 0 255
25.3689924686 456.4423465634 -60.9374 255 0 255
25.3722573894 455.3793515774 -60.8981 255 0 255
25.3804801983 452.7021642053 -60.7406 255 0 255
25.2221932755 504.2373211218 -61.961 255 0 255
25.2208627359 504.6705190785 -61.8429 255 0 255
25.2234024941 503.8436229788 -61.8429 255 0 255
25.2247324195 503.4106250212 -61.8036 255 0 255
25.2223139824 504.1980213072 -61.7642 255 0 255
25.2196538245 505.0641172219 -61.7248 255 0 255
25.2185656199 505.4184155508 -61.6461 255 0 255
25.2234024941 503.8436229788 -61.6067 255 0 255
25.2185656199 505.4184155508 -61.1736 255 0 255
25.220621015 504.7492187073 -61.1736 255 0 255
25.225941638 503.0169268782 -61.1343 255 0 255
25.5471109441 398.4504201025 -60.8587 255 0 255
25.2611299899 491.5602809175 -62.0004 255 0 255
25.2627019433 491.0484833315 -61.8823 255 0 255
25.2598000645 491.9932788751 -61.8823 255 0 255
25.2654834224 490.1428876031 -61.8823 255 0 255
25.2679018595 489.3554913171 -61.6855 255 0 255
25.2670553758 489.6310900172 -61.0162 255 0 255
25.4356208098 434.7494488855 -62.1185 255 0 255
25.4422713582 432.5841590989 -62.0398 255 0 255
25.4357415166 434.7101490709 -60.9374 255 0 255
25.3982350926 459.7494519789 -61.8036 255 0 255
25.3151614406 486.7966244015 -62.0398 255 0 255
25.3163706592 486.4029262585 -61.9217 255 0 255
25.3133477664 487.3871216162 -61.8823 255 0 255
25.3226587799 484.3556359153 -61.1343 255 0 255
25.3120175338 487.8202195733 -61.0162 255 0 255
25.3833614281 464.5920291372 -60.8587 255 0 255
25.2933955068 493.8831909752 -61.8036 255 0 255
25.2904933208 494.8280865183 -61.8036 255 0 255
25.2865029303 496.1272803902 -61.6855 255 0 255
25.2946047253 493.4894928322 -61.6855 255 0 255
25.2837217584 497.0327761191 -61.6461 255 0 255
25.2796103539 498.3713698052 -61.528 255 0 255
25.2918235534 494.3949885612 -61.4886 255 0 255
25.2837217584 497.0327761191 -61.4099 255 0 255
25.2810612933 497.8989720334 -61.4099 255 0 255
25.2932744928 493.9225907894 -61.0555 255 0 255
25.5027116365 425.733912425 -60.8193 255 0 255
25.2728387915 500.576059406 -61.8429 255 0 255
25.2717502798 500.9304577343 -61.7642 255 0 255
25.2682436381 502.0721523491 -61.7642 255 0 255
25.2754989494 499.7099634912 -61.6855 255 0 255
25.2757409774 499.6311638629 -61.6461 255 0 255
25.2704203544 501.363455692 -61.6067 255 0 255
25.2713875449 501.0485571773 -61.6067 255 0 255
25.2678809033 502.1902517921 -61.6067 255 0 255
25.2666716847 502.5839499351 -61.4886 255 0 255
25.2718712938 500.8910579202 -61.2918 255 0 255
25.2666716847 502.5839499351 -61.2524 255 0 255
25.2690901218 501.7965536491 -61.2524 255 0 255
25.2757409774 499.6311638629 -61.1736 255 0 255
25.2677598893 502.2296516062 -61.1343 255 0 255
25.5424951417 412.7811735211 -60.8981 255 0 255
25.4612354711 439.2377487295 -60.7799 255 0 255
25.5917103673 396.7576491016 -60.8981 255 0 255
25.4377765698 446.8755127033 -61.8823 255 0 255
25.4492639925 443.1354303447 -61.8036 255 0 255
25.4445481323 444.6708231025 -60.7799 255 0 255
25.4950935904 428.2142007258 -62.0398 255 0 255
25.410447985 455.7731707344 -60.8193 255 0 255
25.4096015013 456.0487694344 -60.7799 255 0 255
25.4134711849 454.7888753772 -60.7799 255 0 255
25.2652207453 503.0563477068 -61.6067 255 0 255
25.2563931735 505.9304341502 -61.4886 255 0 255
25.2588119178 505.1429378647 -61.4886 255 0 255
25.2614720757 504.27684195 -61.4886 255 0 255
25.2640115268 503.4500458498 -61.4886 255 0 255
25.2577234061 505.4973361931 -61.3705 255 0 255
